//X,Y,Z,Scalar field
473932.86000061,5370967.20001221,109.06999969,1.000000
473932.61000061,5370967.48999023,109.93000031,1.000000
473931.91999817,5370967.86999512,108.58999634,1.000000
473931.27000427,5370968.23999023,107.48999786,1.000000
473930.57000732,5370968.61999512,106.12000275,1.000000
473930.08000183,5370968.96002197,105.80999756,1.000000
473929.69999695,5370969.27001953,105.95999908,1.000000
473929.35000610,5370969.58001709,106.27999878,1.000000
473929.22999573,5370969.84997559,107.70999908,1.000000
473928.47000122,5370970.00000000,104.12999725,1.000000
473928.94000244,5370970.14001465,108.30000305,1.000000
473928.52999878,5370970.46997070,108.37000275,1.000000
473927.72000122,5370970.63000488,104.55999756,1.000000
473925.54000092,5370971.09002686,94.29000092,2.000000
473927.65000153,5370970.89001465,106.26000214,1.000000
473925.13999939,5370971.41998291,94.41000366,1.000000
473927.36000061,5370971.19000244,106.83000183,1.000000
473924.69999695,5370971.75000000,94.36000061,1.000000
473924.26999664,5370972.09002686,94.37999725,1.000000
473927.29000092,5370971.67999268,110.52999878,1.000000
473923.79000092,5370972.42999268,94.16000366,2.000000
473927.01000214,5370971.97998047,111.16000366,1.000000
473923.36000061,5370972.76000977,94.19000244,1.000000
473925.80999756,5370972.46997070,107.58999634,1.000000
473922.91000366,5370973.09997559,94.08999634,1.000000
473925.48000336,5370972.78002930,107.98000336,1.000000
473922.47000122,5370973.44000244,94.05000305,1.000000
473925.09999847,5370973.09997559,108.23000336,1.000000
473922.02999878,5370973.77001953,94.02999878,2.000000
473924.66000366,5370973.42999268,108.12999725,1.000000
473921.62999725,5370974.09997559,94.16999817,1.000000
473924.44999695,5370973.71002197,109.12000275,1.000000
473924.11000061,5370974.02001953,109.52999878,1.000000
473923.15000153,5370974.20001221,110.20999908,1.000000
473923.44999695,5370973.89001465,109.58999634,1.000000
473923.91000366,5370973.54998779,109.73999786,1.000000
473920.50000000,5370974.30999756,94.08999634,1.000000
473924.12999725,5370973.25000000,108.75000000,1.000000
473920.91999817,5370973.96002197,93.98000336,2.000000
473921.41000366,5370973.60998535,94.15000153,1.000000
473921.83999634,5370973.26000977,94.09999847,1.000000
473925.19999695,5370972.28002930,107.59999847,1.000000
473922.25000000,5370972.91998291,93.88999939,2.000000
473926.04000092,5370971.84997559,109.44999695,1.000000
473922.69999695,5370972.57000732,93.90000153,1.000000
473926.77999878,5370971.44000244,110.88999939,1.000000
473923.18000031,5370972.21997070,94.08000183,1.000000
473927.56999969,5370971.02001953,112.51000214,1.000000
473923.62999725,5370971.85998535,94.09999847,2.000000
473928.05000305,5370970.66998291,112.73000336,1.000000
473926.70999908,5370970.96002197,106.41999817,1.000000
473924.11000061,5370971.51000977,94.23000336,1.000000
473927.19000244,5370970.60998535,106.65000153,1.000000
473924.55999756,5370971.16998291,94.31999969,1.000000
473927.95999908,5370970.20001221,108.25000000,1.000000
473925.00000000,5370970.82000732,94.27999878,1.000000
473928.47000122,5370969.84997559,108.59999847,1.000000
473928.85000610,5370969.53002930,108.37000275,1.000000
473929.19999695,5370969.21002197,108.00000000,1.000000
473929.47999573,5370968.90997314,107.33999634,1.000000
473929.55999756,5370968.65002441,105.69000244,1.000000
473929.89999390,5370968.33001709,105.30000305,1.000000
473928.92999268,5370968.53002930,100.66000366,1.000000
473930.22999573,5370968.03002930,104.86000061,1.000000
473930.85000610,5370967.65997314,105.83999634,1.000000
473931.86000061,5370967.21997070,108.69000244,1.000000
473930.60000610,5370967.46997070,102.59999847,1.000000
473932.35000610,5370966.88000488,109.08000183,1.000000
473932.74000549,5370966.57000732,109.01000214,1.000000
473933.10000610,5370966.26000977,108.76999664,1.000000
473930.38000488,5370966.78002930,95.54000092,1.000000
473932.69999695,5370966.09002686,104.80999756,1.000000
473930.86000061,5370966.44000244,95.87000275,1.000000
473932.94999695,5370965.79998779,104.02999878,1.000000
473931.19000244,5370966.13000488,95.43000031,1.000000
473934.36000061,5370965.28997803,108.94999695,1.000000
473933.58000183,5370965.44000244,105.12999725,1.000000
473934.16000366,5370965.09002686,105.88999939,1.000000
473934.41000366,5370964.78997803,105.11000061,1.000000
473932.44999695,5370965.15002441,95.47000122,1.000000
473935.35000610,5370964.36999512,107.73000336,1.000000
473932.75999451,5370964.84997559,94.91000366,2.000000
473933.22000122,5370964.51000977,95.06999969,1.000000
473931.97999573,5370964.44000244,103.62000275,1.000000
473933.02000427,5370964.48999023,110.79000092,1.000000
473932.07000732,5370964.92999268,108.26000214,1.000000
473929.16000366,5370965.47998047,94.15000153,1.000000
473931.44000244,5370965.29998779,107.30000305,1.000000
473928.75000000,5370965.82000732,94.29000092,1.000000
473930.19000244,5370965.78997803,103.29000092,1.000000
473928.38999939,5370966.13000488,94.62999725,1.000000
473929.78999329,5370966.10998535,103.45999908,1.000000
473927.86000061,5370966.48999023,94.12999725,1.000000
473929.80999756,5370966.34997559,105.56999969,1.000000
473927.41000366,5370966.83001709,94.02999878,1.000000
473929.41999817,5370966.67999268,105.76999664,1.000000
473929.28999329,5370966.95001221,107.20999908,1.000000
473929.00999451,5370967.25000000,107.86000061,1.000000
473928.72000122,5370967.54998779,108.55999756,1.000000
473928.19000244,5370967.90002441,108.05000305,1.000000
473928.38000488,5370968.09997559,110.94000244,1.000000
473927.43000031,5370968.29998779,106.44000244,1.000000
473924.79000092,5370968.84002686,93.95999908,2.000000
473928.03999329,5370968.40997314,111.33999634,1.000000
473927.26999664,5370968.57000732,107.73999786,1.000000
473927.56999969,5370968.75000000,111.12000275,1.000000
473926.55999756,5370968.96002197,106.37000275,1.000000
473923.95999908,5370969.50000000,94.16000366,1.000000
473927.37999725,5370969.03002930,112.23999786,1.000000
473926.26000214,5370969.26000977,106.94999695,1.000000
473923.48999786,5370969.84002686,93.95999908,1.000000
473927.01000214,5370969.34002686,112.48000336,1.000000
473925.84999847,5370969.59002686,107.02999878,1.000000
473923.01000214,5370970.19000244,93.75000000,2.000000
473926.54000092,5370969.67999268,112.29000092,1.000000
473925.55000305,5370969.89001465,107.65000153,1.000000
473922.56999969,5370970.53002930,93.72000122,2.000000
473925.83999634,5370970.07000732,110.95999908,1.000000
473925.37999725,5370970.40002441,110.80999756,1.000000
473924.50000000,5370970.83001709,108.65000153,1.000000
473921.27999878,5370971.53002930,93.75000000,1.000000
473924.12999725,5370971.15002441,108.93000031,1.000000
473920.79000092,5370971.88000488,93.51999664,2.000000
473923.66000366,5370971.48999023,108.73999786,1.000000
473920.41000366,5370972.20001221,93.75000000,1.000000
473923.20999908,5370971.82000732,108.59999847,1.000000
473920.04000092,5370972.52001953,94.01000214,1.000000
473923.25000000,5370972.04998779,110.76999664,1.000000
473919.58000183,5370972.86999512,93.94999695,1.000000
473922.94999695,5370972.34997559,111.37999725,1.000000
473919.08999634,5370973.21997070,93.68000031,2.000000
473922.37000275,5370972.71002197,110.63999939,1.000000
473918.66999817,5370973.54998779,93.76999664,2.000000
473921.55000305,5370973.14001465,108.91000366,1.000000
473918.26000214,5370973.88000488,93.90000153,2.000000
473921.05000305,5370973.48999023,108.58000183,1.000000
473917.83000183,5370974.21997070,93.93000031,2.000000
473919.88999939,5370973.98999023,110.65000153,1.000000
473920.27999878,5370973.66998291,110.48000336,1.000000
473917.29000092,5370974.10998535,94.94000244,1.000000
473917.68000031,5370973.78002930,94.69000244,1.000000
473921.25000000,5370972.71997070,108.94000244,1.000000
473918.18000031,5370973.41998291,94.94999695,1.000000
473922.09999847,5370972.28002930,110.79000092,1.000000
473918.56999969,5370973.08001709,94.68000031,1.000000
473922.93000031,5370971.84997559,112.55000305,1.000000
473923.08000183,5370971.57000732,111.20999908,1.000000
473921.90000153,5370971.84002686,105.81999969,1.000000
473919.27999878,5370972.41998291,93.79000092,1.000000
473923.08999634,5370971.32000732,109.23000336,1.000000
473919.72000122,5370972.07000732,93.69999695,1.000000
473923.59999847,5370970.96002197,109.51000214,1.000000
473920.08999634,5370971.72998047,93.33999634,2.000000
473924.12000275,5370970.59002686,109.83999634,1.000000
473920.58000183,5370971.36999512,93.44999695,1.000000
473924.69000244,5370970.21997070,110.37999725,1.000000
473921.04000092,5370971.01000977,93.48999786,2.000000
473925.31999969,5370969.84002686,111.26000214,1.000000
473925.75000000,5370969.48999023,111.19999695,1.000000
473926.41999817,5370969.09997559,112.30000305,1.000000
473922.40000153,5370969.95001221,93.50000000,2.000000
473926.69999695,5370968.79998779,111.61000061,1.000000
473925.70999908,5370969.01000977,106.93000031,1.000000
473926.00000000,5370968.70001221,106.25000000,1.000000
473923.37000275,5370969.25000000,93.91000366,1.000000
473927.40000153,5370968.15997314,110.83999634,1.000000
473926.44999695,5370968.35998535,106.37000275,1.000000
473927.62999725,5370967.86999512,109.94000244,1.000000
473927.37999725,5370967.67999268,106.76999664,1.000000
473928.03999329,5370967.30999756,107.94999695,1.000000
473928.39999390,5370967.00000000,107.68000031,1.000000
473928.75999451,5370966.69000244,107.43000031,1.000000
473929.14999390,5370966.36999512,107.33999634,1.000000
473929.17999268,5370966.11999512,105.51999664,1.000000
473929.50000000,5370965.82000732,105.06999969,1.000000
473927.15000153,5370966.28002930,93.76999664,2.000000
473929.82000732,5370965.52001953,104.61000061,1.000000
473929.94000244,5370965.25000000,103.16000366,1.000000
473927.98999786,5370965.63000488,93.75000000,2.000000
473931.27000427,5370964.75000000,107.58999634,1.000000
473932.17999268,5370964.33001709,110.01000214,1.000000
473930.13999939,5370964.71997070,100.09999847,1.000000
473928.83999634,5370964.96997070,93.79000092,2.000000
473927.94000244,5370964.40997314,101.08999634,1.000000
473929.11999512,5370964.42999268,108.80999756,1.000000
473928.22999573,5370964.59997559,104.55000305,1.000000
473927.51000214,5370964.73999023,101.05999756,1.000000
473925.91999817,5370965.04998779,93.44000244,1.000000
473928.00999451,5370964.89001465,105.47000122,1.000000
473927.62999725,5370965.20001221,105.70999908,1.000000
473927.55000305,5370965.46002197,107.26999664,1.000000
473924.73000336,5370966.02001953,93.86000061,1.000000
473926.81999969,5370965.84997559,105.83999634,1.000000
473926.66999817,5370966.10998535,107.12000275,1.000000
473926.44999695,5370966.39001465,108.04000092,1.000000
473923.41999817,5370967.02001953,93.66999817,1.000000
473926.36000061,5370966.65002441,109.55000305,1.000000
473926.05999756,5370966.95001221,110.12999725,1.000000
473925.62000275,5370967.27001953,109.97000122,1.000000
473925.48999786,5370967.53997803,111.33999634,1.000000
473925.08000183,5370967.84997559,111.36000061,1.000000
473924.16000366,5370968.04998779,107.05000305,1.000000
473925.23999786,5370968.04998779,114.04000092,1.000000
473924.77999878,5370968.38000488,113.83999634,1.000000
473923.94999695,5370968.78997803,111.90000153,1.000000
473924.38999939,5370968.92999268,115.88999939,1.000000
473923.51999664,5370969.11999512,111.87000275,1.000000
473922.06999969,5370969.44000244,105.18000031,1.000000
473922.73000336,5370969.53002930,110.16000366,1.000000
473921.73000336,5370969.75000000,105.58000183,1.000000
473920.84999847,5370969.94000244,101.50000000,1.000000
473922.22000122,5370969.86999512,109.76999664,1.000000
473922.02999878,5370970.15002441,110.84999847,1.000000
473921.73999786,5370970.45001221,111.45999908,1.000000
473921.80000305,5370970.66998291,113.66000366,1.000000
473921.23000336,5370971.03002930,113.05000305,1.000000
473920.83999634,5370971.34997559,113.23999786,1.000000
473919.20999908,5370971.72998047,105.83999634,1.000000
473920.48999786,5370971.66998291,113.56999969,1.000000
473918.76999664,5370972.05999756,105.76999664,1.000000
473916.80000305,5370972.51000977,96.86000061,1.000000
473916.04000092,5370972.69000244,93.41000366,2.000000
473920.08999634,5370972.00000000,113.75000000,1.000000
473916.30000305,5370972.86999512,96.59999847,1.000000
473915.61000061,5370973.03002930,93.51000214,2.000000
473919.66999817,5370972.33001709,113.80000305,1.000000
473915.73000336,5370973.23999023,96.01999664,1.000000
473919.38999939,5370972.61999512,114.43000031,1.000000
473914.91000366,5370973.66998291,94.30000305,1.000000
473918.37999725,5370973.09002686,111.87000275,1.000000
473914.33999634,5370974.03997803,93.73000336,1.000000
473917.88999939,5370973.44000244,111.58999634,1.000000
473917.54000092,5370973.76000977,111.95999908,1.000000
473917.01999664,5370974.10998535,111.61000061,1.000000
473916.52999878,5370974.26000977,114.83999634,1.000000
473916.93000031,5370973.91998291,114.63999939,1.000000
473916.25000000,5370974.09002686,111.63999939,1.000000
473915.55000305,5370974.26000977,108.50000000,1.000000
473916.50000000,5370973.78997803,110.76000214,1.000000
473917.26000214,5370973.35998535,112.12000275,1.000000
473917.63999939,5370973.03002930,111.83000183,1.000000
473918.43000031,5370972.60998535,113.44000244,1.000000
473918.94000244,5370972.25000000,113.73000336,1.000000
473914.43000031,5370973.29998779,93.47000122,2.000000
473919.41999817,5370971.90002441,113.95999908,1.000000
473914.91999817,5370972.94000244,93.65000153,1.000000
473919.76999664,5370971.58001709,113.51000214,1.000000
473916.19000244,5370972.40002441,97.33999634,1.000000
473920.34999847,5370971.20001221,114.15000153,1.000000
473916.66000366,5370972.04998779,97.44000244,1.000000
473915.75000000,5370972.25000000,93.33999634,1.000000
473921.00000000,5370970.82000732,115.13999939,1.000000
473919.95999908,5370971.04998779,110.41999817,1.000000
473919.02999878,5370971.26000977,106.19000244,1.000000
473921.26000214,5370970.51000977,114.34999847,1.000000
473921.51999664,5370970.21002197,113.51999664,1.000000
473921.83000183,5370969.90002441,112.97000122,1.000000
473922.20999908,5370969.57000732,112.66999817,1.000000
473920.73999786,5370969.90002441,105.94000244,1.000000
473919.90000153,5370970.08001709,102.08999634,1.000000
473923.33000183,5370969.08001709,115.81999969,1.000000
473922.41000366,5370969.28002930,111.58000183,1.000000
473921.38999939,5370969.51000977,106.86000061,1.000000
473923.73000336,5370968.75000000,115.66000366,1.000000
473922.73000336,5370968.96997070,111.04000092,1.000000
473921.51000214,5370969.23999023,105.43000031,1.000000
473920.79000092,5370969.39001465,102.12000275,1.000000
473923.86000061,5370968.47998047,114.27999878,1.000000
473924.65000153,5370968.05999756,115.94999695,1.000000
473924.75000000,5370967.79998779,114.37999725,1.000000
473924.73000336,5370967.55999756,112.27999878,1.000000
473925.31999969,5370967.19000244,113.05999756,1.000000
473925.62000275,5370966.88000488,112.44999695,1.000000
473924.01999664,5370967.21997070,104.91000366,1.000000
473925.97000122,5370966.57000732,112.06999969,1.000000
473926.05000305,5370966.30999756,110.48000336,1.000000
473926.50000000,5370965.96997070,110.55999756,1.000000
473925.08000183,5370966.26000977,103.87999725,1.000000
473922.75000000,5370966.73999023,92.87999725,2.000000
473926.87000275,5370965.65002441,110.31999969,1.000000
473926.97000122,5370965.39001465,108.83999634,1.000000
473926.41000366,5370965.51000977,106.19000244,1.000000
473927.23000336,5370965.09997559,108.01999664,1.000000
473924.08999634,5370965.72998047,93.11000061,1.000000
473927.73000336,5370964.75000000,108.41999817,1.000000
473926.79000092,5370964.94000244,103.93000031,1.000000
473924.38999939,5370965.41998291,92.51999664,2.000000
473927.33999634,5370964.59002686,104.61000061,1.000000
473925.01000214,5370965.04998779,93.44999695,1.000000
473925.37000275,5370964.72998047,93.12000275,1.000000
473925.76000214,5370964.40997314,93.01000214,1.000000
473922.81999969,5370964.47998047,92.47000122,1.000000
473922.33000183,5370964.82000732,92.19000244,1.000000
473925.80000305,5370964.34997559,110.58000183,1.000000
473925.02999878,5370964.51000977,106.91000366,1.000000
473921.88999939,5370965.15002441,92.09999847,1.000000
473925.44000244,5370964.66998291,110.88999939,1.000000
473924.75000000,5370965.04998779,109.58000183,1.000000
473924.38999939,5370965.35998535,109.86000061,1.000000
473924.52999878,5370965.57000732,112.55000305,1.000000
473924.15000153,5370965.89001465,112.77999878,1.000000
473924.37999725,5370966.08001709,115.79000092,1.000000
473923.62999725,5370966.23999023,112.30999756,1.000000
473923.80000305,5370966.44000244,115.09999847,1.000000
473922.04000092,5370966.82000732,106.91000366,1.000000
473923.62000275,5370966.71997070,116.25000000,1.000000
473923.45999908,5370966.98999023,117.44999695,1.000000
473920.93000031,5370967.53997803,105.76000214,1.000000
473919.66000366,5370967.80999756,99.91999817,1.000000
473918.83999634,5370967.98999023,96.12999725,1.000000
473922.86000061,5370967.35998535,116.63999939,1.000000
473921.62999725,5370967.61999512,110.98999786,1.000000
473920.50000000,5370967.86999512,105.79000092,1.000000
473917.90000153,5370968.44000244,93.77999878,1.000000
473922.40000153,5370967.69000244,116.48000336,1.000000
473921.34999847,5370967.91998291,111.66999817,1.000000
473920.04000092,5370968.21002197,105.66000366,1.000000
473921.55000305,5370968.10998535,114.58000183,1.000000
473920.84999847,5370968.51000977,113.33000183,1.000000
473917.38999939,5370969.28002930,97.50000000,1.000000
473920.52999878,5370968.80999756,113.79000092,1.000000
473917.18000031,5370969.55999756,98.52999878,1.000000
473921.19000244,5370968.90002441,118.79000092,1.000000
473920.05999756,5370969.15002441,113.62000275,1.000000
473920.69000244,5370969.23999023,118.44999695,1.000000
473920.01999664,5370969.40002441,115.38999939,1.000000
473919.37000275,5370969.53997803,112.43000031,1.000000
473920.37999725,5370969.53997803,118.94000244,1.000000
473919.88999939,5370969.89001465,118.66999817,1.000000
473919.38999939,5370970.23999023,118.30999756,1.000000
473918.33000183,5370970.47998047,113.54000092,1.000000
473918.94999695,5370970.57000732,118.26000214,1.000000
473917.29000092,5370970.95001221,110.77999878,1.000000
473918.51000214,5370970.90002441,118.16999817,1.000000
473917.83000183,5370971.28997803,117.05000305,1.000000
473916.59999847,5370971.57000732,111.55999756,1.000000
473917.23999786,5370971.65997314,116.34999847,1.000000
473916.30999756,5370971.88000488,112.19999695,1.000000
473914.93000031,5370972.20001221,106.01999664,1.000000
473912.08000183,5370972.88000488,93.31999969,1.000000
473915.87000275,5370972.21002197,112.13999939,1.000000
473914.43000031,5370972.54998779,105.73999786,1.000000
473912.54000092,5370973.00000000,97.31999969,1.000000
473915.72000122,5370972.47998047,113.36000061,1.000000
473911.26000214,5370973.53997803,93.56999969,1.000000
473915.44000244,5370972.77001953,114.04000092,1.000000
473910.81999969,5370973.88000488,93.58000183,2.000000
473915.06999969,5370973.09002686,114.30000305,1.000000
473911.65000153,5370973.91998291,99.20999908,1.000000
473910.43000031,5370974.21002197,93.83999634,2.000000
473914.69000244,5370973.40997314,114.50000000,1.000000
473914.26999664,5370973.73999023,114.58999634,1.000000
473911.16000366,5370974.30999756,104.34999847,1.000000
473913.88999939,5370973.40002441,114.36000061,1.000000
473911.36000061,5370974.02001953,103.26000214,1.000000
473914.25000000,5370973.08001709,114.04000092,1.000000
473909.73000336,5370974.17999268,94.12999725,1.000000
473914.69999695,5370972.72998047,114.05000305,1.000000
473911.29000092,5370973.54998779,99.01000214,1.000000
473915.12000275,5370972.39001465,113.98999786,1.000000
473911.66000366,5370973.21997070,98.63999939,1.000000
473910.51999664,5370973.50000000,93.62000275,1.000000
473915.51000214,5370972.05999756,113.76000214,1.000000
473910.88999939,5370973.16998291,93.27999878,2.000000
473917.23000336,5370971.41998291,119.43000031,1.000000
473915.80999756,5370971.75000000,113.12999725,1.000000
473917.55000305,5370971.09997559,118.95999908,1.000000
473916.05000305,5370971.46002197,112.25000000,1.000000
473917.69000244,5370970.84002686,117.65000153,1.000000
473916.50000000,5370971.11999512,112.30999756,1.000000
473918.08999634,5370970.50000000,117.43000031,1.000000
473917.26999664,5370970.69000244,113.79000092,1.000000
473918.62000275,5370970.14001465,117.90000153,1.000000
473917.65000153,5370970.36999512,113.52999878,1.000000
473917.23999786,5370970.46002197,111.69000244,1.000000
473918.97000122,5370969.82000732,117.54000092,1.000000
473918.12999725,5370970.02001953,113.73999786,1.000000
473917.44000244,5370970.17999268,110.63999939,1.000000
473919.37999725,5370969.48999023,117.43000031,1.000000
473919.97000122,5370969.11999512,118.16000366,1.000000
473918.30999756,5370969.50000000,110.62000275,1.000000
473920.26999664,5370968.80999756,117.51999664,1.000000
473920.87999725,5370968.44000244,118.33000183,1.000000
473919.88999939,5370968.65997314,113.80999756,1.000000
473918.48999786,5370968.97998047,107.44999695,1.000000
473921.09999847,5370968.15002441,117.43000031,1.000000
473920.40000153,5370968.30999756,114.19999695,1.000000
473919.22000122,5370968.57000732,108.80999756,1.000000
473916.84999847,5370969.09997559,98.00000000,1.000000
473920.83999634,5370967.96997070,114.23000336,1.000000
473917.41000366,5370968.72998047,98.55000305,1.000000
473921.48000336,5370967.59002686,115.18000031,1.000000
473917.79000092,5370968.40002441,98.27999878,1.000000
473922.12999725,5370967.21002197,116.23999786,1.000000
473922.73000336,5370966.84002686,117.01000214,1.000000
473921.76999664,5370967.03997803,112.61000061,1.000000
473918.45999908,5370967.77001953,97.33000183,1.000000
473922.59999847,5370966.61999512,114.44999695,1.000000
473920.68000031,5370967.03997803,105.55999756,1.000000
473919.37999725,5370967.32000732,99.55000305,1.000000
473922.97000122,5370966.30999756,114.22000122,1.000000
473921.08000183,5370966.71002197,105.45999908,1.000000
473923.48999786,5370965.95001221,114.58000183,1.000000
473923.97000122,5370965.60998535,114.83000183,1.000000
473924.05000305,5370965.34997559,113.23000336,1.000000
473924.19999695,5370965.07000732,111.91999817,1.000000
473924.22000122,5370964.82000732,109.98999786,1.000000
473924.58999634,5370964.50000000,109.68000031,1.000000
473921.27999878,5370964.92999268,92.04000092,1.000000
473921.70999908,5370964.59002686,92.01000214,1.000000
473918.76000214,5370964.63000488,91.26000214,2.000000
473918.37000275,5370964.95001221,91.41999817,2.000000
473922.48999786,5370964.32000732,112.58000183,1.000000
473919.73000336,5370964.90002441,99.76000214,1.000000
473918.05000305,5370965.26000977,91.94000244,1.000000
473922.11000061,5370964.64001465,112.80999756,1.000000
473918.30000305,5370965.45001221,95.12000275,1.000000
473917.61000061,5370965.59997559,91.90000153,1.000000
473921.62000275,5370964.97998047,112.51999664,1.000000
473918.76000214,5370965.59002686,99.26999664,1.000000
473917.90000153,5370965.78002930,95.27999878,1.000000
473921.20999908,5370965.29998779,112.55000305,1.000000
473917.87000275,5370966.02001953,97.12999725,1.000000
473921.58000183,5370965.46002197,116.22000122,1.000000
473920.77999878,5370965.63000488,112.55000305,1.000000
473921.09999847,5370965.78997803,115.93000031,1.000000
473920.33999634,5370965.96002197,112.43000031,1.000000
473917.34999847,5370966.60998535,98.72000122,1.000000
473920.68000031,5370966.11999512,115.98000336,1.000000
473919.94000244,5370966.28997803,112.59999847,1.000000
473920.23999786,5370966.46002197,115.95999908,1.000000
473919.43000031,5370966.64001465,112.23999786,1.000000
473919.83999634,5370966.78002930,116.06999969,1.000000
473919.26000214,5370967.14001465,115.37999725,1.000000
473918.38999939,5370967.34002686,111.40000153,1.000000
473919.12999725,5370967.40997314,116.73000336,1.000000
473918.47000122,5370967.78997803,115.65000153,1.000000
473918.12999725,5370968.09997559,116.08999634,1.000000
473917.81999969,5370968.40997314,116.63999939,1.000000
473917.38999939,5370968.73999023,116.61000061,1.000000
473917.20999908,5370969.01000977,117.73999786,1.000000
473916.33000183,5370969.21002197,113.77999878,1.000000
473915.58000183,5370969.39001465,110.40000153,1.000000
473917.23000336,5370969.22998047,119.73000336,1.000000
473916.70999908,5370969.59002686,119.30999756,1.000000
473915.69999695,5370969.82000732,114.80999756,1.000000
473913.37000275,5370970.36999512,104.38999939,1.000000
473915.27999878,5370970.15002441,114.87000275,1.000000
473912.94000244,5370970.71002197,104.45999908,1.000000
473910.26000214,5370971.34002686,92.54000092,2.000000
473914.68000031,5370970.53002930,114.05999756,1.000000
473912.81999969,5370970.96997070,105.83999634,1.000000
473909.83999634,5370971.67999268,92.58999634,2.000000
473912.37000275,5370971.30999756,105.77999878,1.000000
473909.45999908,5370972.01000977,92.91000366,1.000000
473912.01000214,5370971.63000488,106.12000275,1.000000
473909.01999664,5370972.34997559,92.91999817,2.000000
473911.68000031,5370971.94000244,106.55000305,1.000000
473908.65000153,5370972.66998291,93.23999786,2.000000
473909.59999847,5370972.67999268,99.36000061,1.000000
473908.27999878,5370973.00000000,93.55999756,2.000000
473907.95999908,5370973.30999756,94.13999939,1.000000
473907.55000305,5370973.64001465,94.23000336,1.000000
473908.91999817,5370973.53997803,102.18000031,1.000000
473907.15000153,5370973.97998047,94.48000336,1.000000
473908.55999756,5370973.85998535,102.54000092,1.000000
473906.76000214,5370974.30999756,94.72000122,1.000000
473908.01999664,5370974.21997070,102.06999969,1.000000
473907.65000153,5370973.97998047,102.65000153,1.000000
473907.98000336,5370973.65002441,102.05999756,1.000000
473906.19999695,5370974.09002686,94.34999847,1.000000
473908.23999786,5370973.34002686,101.18000031,1.000000
473906.65000153,5370973.73999023,94.25000000,1.000000
473907.04000092,5370973.39001465,93.98999786,2.000000
473907.47000122,5370973.03997803,93.81999969,1.000000
473907.84999847,5370972.70001221,93.44000244,2.000000
473910.80000305,5370971.73999023,104.44000244,1.000000
473908.22000122,5370972.36999512,93.08999634,2.000000
473911.22000122,5370971.40002441,104.30999756,1.000000
473908.63999939,5370972.02001953,92.91999817,1.000000
473911.70999908,5370971.03997803,104.45999908,1.000000
473909.05000305,5370971.67999268,92.69000244,1.000000
473915.61000061,5370969.86999512,119.75000000,1.000000
473912.12000275,5370970.70001221,104.26999664,1.000000
473909.44000244,5370971.33001709,92.40000153,2.000000
473916.01000214,5370969.53002930,119.58000183,1.000000
473912.62999725,5370970.33001709,104.51000214,1.000000
473909.91999817,5370970.96997070,92.50000000,1.000000
473916.66999817,5370969.14001465,120.56999969,1.000000
473913.02999878,5370969.98999023,104.36000061,1.000000
473910.33999634,5370970.63000488,92.36000061,2.000000
473916.88999939,5370968.84997559,119.56999969,1.000000
473913.55000305,5370969.63000488,104.63999939,1.000000
473916.81999969,5370968.61999512,117.30999756,1.000000
473915.48000336,5370968.92999268,111.29000092,1.000000
473917.38999939,5370968.25000000,117.90000153,1.000000
473917.76999664,5370967.92999268,117.65000153,1.000000
473917.94999695,5370967.64001465,116.50000000,1.000000
473918.56999969,5370967.27001953,117.37000275,1.000000
473918.79000092,5370966.97998047,116.40000153,1.000000
473919.09999847,5370966.67999268,115.87000275,1.000000
473919.51000214,5370966.34002686,115.76999664,1.000000
473918.73999786,5370966.51000977,112.26999664,1.000000
473918.00000000,5370966.67999268,108.87000275,1.000000
473919.72000122,5370966.05999756,114.75000000,1.000000
473918.33000183,5370966.36999512,108.41000366,1.000000
473920.23999786,5370965.71002197,115.20999908,1.000000
473918.16999817,5370966.15997314,105.73000336,1.000000
473917.06999969,5370966.40002441,100.69000244,1.000000
473919.98000336,5370965.52001953,112.05999756,1.000000
473918.58000183,5370965.83001709,105.61000061,1.000000
473917.18000031,5370966.13000488,99.16999817,1.000000
473920.55999756,5370965.15002441,112.70999908,1.000000
473916.80000305,5370965.96997070,95.37999725,1.000000
473920.95999908,5370964.83001709,112.63999939,1.000000
473917.23999786,5370965.63000488,95.44000244,1.000000
473921.47000122,5370964.47998047,112.98000336,1.000000
473919.94999695,5370964.79998779,105.93000031,1.000000
473920.36000061,5370964.46997070,105.81999969,1.000000
473917.44999695,5370965.09002686,92.27999878,1.000000
473917.73000336,5370964.78002930,91.58999634,1.000000
473915.22000122,5370964.46002197,91.02999878,1.000000
473915.62000275,5370964.61999512,94.91000366,1.000000
473917.44999695,5370964.46002197,105.33000183,1.000000
473915.00000000,5370964.98999023,94.08999634,1.000000
473914.40000153,5370965.11999512,91.30999756,1.000000
473918.87000275,5370964.39001465,113.87000275,1.000000
473917.29000092,5370964.73999023,106.62999725,1.000000
473914.56999969,5370965.34002686,94.15000153,1.000000
473918.44000244,5370964.72998047,113.87999725,1.000000
473917.15000153,5370965.01000977,108.00000000,1.000000
473916.58999634,5370965.13000488,105.44000244,1.000000
473918.06999969,5370965.03997803,114.12999725,1.000000
473918.20999908,5370965.25000000,116.76999664,1.000000
473917.98000336,5370965.53997803,117.65000153,1.000000
473916.93000031,5370965.78002930,112.88999939,1.000000
473917.19000244,5370965.95001221,116.01000214,1.000000
473915.23999786,5370966.39001465,107.20999908,1.000000
473914.54000092,5370966.54998779,104.05999756,1.000000
473911.80999756,5370967.16998291,91.70999908,2.000000
473916.94999695,5370966.23999023,116.90000153,1.000000
473916.33999634,5370966.60998535,116.09999847,1.000000
473915.54000092,5370966.79998779,112.47000122,1.000000
473914.83000183,5370966.96002197,109.30999756,1.000000
473916.38999939,5370966.83001709,118.20999908,1.000000
473914.51999664,5370967.26000977,109.80000305,1.000000
473916.15000153,5370967.11999512,119.04000092,1.000000
473915.87000275,5370967.40997314,119.69000244,1.000000
473915.45999908,5370967.72998047,119.76000214,1.000000
473914.94999695,5370968.08001709,119.36000061,1.000000
473912.91999817,5370968.55999756,110.33999634,1.000000
473914.48000336,5370968.41998291,119.12000275,1.000000
473912.40000153,5370968.90997314,109.91999817,1.000000
473914.09999847,5370968.73999023,119.31999969,1.000000
473911.86000061,5370969.27001953,109.43000031,1.000000
473910.66000366,5370969.54998779,104.13999939,1.000000
473907.94000244,5370970.20001221,92.08000183,2.000000
473910.23000336,5370969.89001465,104.16999817,1.000000
473908.70999908,5370970.25000000,97.43000031,1.000000
473907.59999847,5370970.52001953,92.54000092,1.000000
473909.77999878,5370970.22998047,104.02999878,1.000000
473907.15000153,5370970.85998535,92.48999786,1.000000
473909.30000305,5370970.57000732,103.84999847,1.000000
473907.55999756,5370970.98999023,96.23999786,1.000000
473906.79000092,5370971.17999268,92.83000183,1.000000
473908.81999969,5370970.91998291,103.68000031,1.000000
473906.63999939,5370971.45001221,94.11000061,1.000000
473906.23000336,5370971.78002930,94.25000000,1.000000
473905.94999695,5370972.08001709,94.97000122,1.000000
473905.15000153,5370972.51000977,93.41000366,2.000000
473904.76000214,5370972.84002686,93.58999634,2.000000
473904.36000061,5370973.15997314,93.76999664,1.000000
473903.97000122,5370973.48999023,93.91000366,2.000000
473903.58000183,5370973.82000732,94.13999939,1.000000
473903.09999847,5370974.15997314,93.97000122,2.000000
473903.73999786,5370974.03002930,101.69000244,1.000000
473903.76999664,5370973.77001953,99.80000305,1.000000
473902.41999817,5370974.11999512,94.00000000,1.000000
473903.75000000,5370973.53997803,97.73000336,1.000000
473902.91999817,5370973.75000000,94.12999725,1.000000
473903.33000183,5370973.40002441,93.87999725,2.000000
473903.75000000,5370973.04998779,93.69000244,2.000000
473904.19000244,5370972.67999268,93.52999878,2.000000
473904.97000122,5370972.23999023,94.84999847,1.000000
473905.55999756,5370971.84997559,95.37000275,1.000000
473905.87000275,5370971.52001953,94.68000031,1.000000
473906.23999786,5370971.16998291,94.22000122,1.000000
473906.97000122,5370970.75000000,95.34999847,1.000000
473909.33999634,5370969.91998291,103.70999908,1.000000
473906.73000336,5370970.54998779,92.23000336,2.000000
473909.87000275,5370969.53997803,103.98000336,1.000000
473908.45999908,5370969.88000488,97.77999878,1.000000
473907.20999908,5370970.17999268,92.27999878,1.000000
473910.37000275,5370969.17999268,104.19999695,1.000000
473908.72000122,5370969.57000732,96.93000031,1.000000
473907.62000275,5370969.84002686,92.05000305,2.000000
473914.23999786,5370968.01000977,119.31999969,1.000000
473910.84999847,5370968.82000732,104.30000305,1.000000
473914.63999939,5370967.67999268,119.12000275,1.000000
473915.12999725,5370967.32000732,119.31999969,1.000000
473915.33999634,5370967.03002930,118.29000092,1.000000
473914.26999664,5370967.28002930,113.48999786,1.000000
473915.73000336,5370966.71002197,118.05999756,1.000000
473916.04000092,5370966.39001465,117.48000336,1.000000
473914.19999695,5370966.82000732,109.22000122,1.000000
473912.95999908,5370967.09997559,103.68000031,1.000000
473914.62999725,5370966.46997070,109.19000244,1.000000
473913.41000366,5370966.75000000,103.66999817,1.000000
473916.68000031,5370965.77001953,116.45999908,1.000000
473917.36000061,5370965.36999512,117.58999634,1.000000
473917.98000336,5370965.00000000,118.43000031,1.000000
473916.98999786,5370965.21997070,113.94999695,1.000000
473918.41999817,5370964.65997314,118.51999664,1.000000
473917.61000061,5370964.84002686,114.83999634,1.000000
473917.98000336,5370964.52001953,114.55999756,1.000000
473916.33999634,5370964.65002441,105.13999939,1.000000
473916.73999786,5370964.32000732,104.97000122,1.000000
473913.66999817,5370964.98999023,90.87000275,2.000000
473911.86000061,5370964.48999023,93.41000366,1.000000
473913.66999817,5370964.32000732,103.62999725,1.000000
473911.48000336,5370964.80999756,93.70999908,1.000000
473910.87000275,5370965.19000244,92.93000031,1.000000
473910.40000153,5370965.53997803,92.81999969,1.000000
473915.54000092,5370964.60998535,117.91999817,1.000000
473914.41000366,5370964.86999512,112.84999847,1.000000
473911.87000275,5370965.44000244,101.44000244,1.000000
473910.73000336,5370965.71002197,96.30000305,1.000000
473914.00000000,5370965.19000244,112.94999695,1.000000
473911.48000336,5370965.77001953,101.63999939,1.000000
473913.41999817,5370965.55999756,112.30000305,1.000000
473911.04000092,5370966.10998535,101.63999939,1.000000
473913.55999756,5370965.76000977,114.87000275,1.000000
473912.83999634,5370965.92999268,111.65000153,1.000000
473912.23999786,5370966.07000732,108.98000336,1.000000
473911.12000275,5370966.33001709,103.95999908,1.000000
473913.20999908,5370966.07000732,115.19999695,1.000000
473912.54000092,5370966.22998047,112.20999908,1.000000
473912.90000153,5370966.38000488,115.75000000,1.000000
473910.26999664,5370966.98999023,104.06999969,1.000000
473912.44000244,5370966.71002197,115.58999634,1.000000
473909.62999725,5370967.38000488,103.13999939,1.000000
473912.01000214,5370967.04998779,115.61000061,1.000000
473908.83999634,5370967.79998779,101.59999847,1.000000
473908.06999969,5370968.21997070,100.15000153,1.000000
473906.23999786,5370968.65997314,92.05000305,2.000000
473907.55999756,5370968.57000732,99.77999878,1.000000
473906.97000122,5370968.95001221,99.13999939,1.000000
473908.08999634,5370968.90997314,105.95999908,1.000000
473906.41000366,5370969.32000732,98.61000061,1.000000
473905.80999756,5370969.69000244,97.90000153,1.000000
473904.63999939,5370969.97998047,92.79000092,2.000000
473905.56999969,5370969.97998047,98.77999878,1.000000
473905.12999725,5370970.32000732,98.76000214,1.000000
473904.44999695,5370970.71997070,97.73000336,1.000000
473903.83999634,5370971.09997559,96.98000336,1.000000
473903.01999664,5370971.29998779,93.43000031,2.000000
473903.30999756,5370971.46002197,96.58000183,1.000000
473903.16000366,5370971.72998047,97.81999969,1.000000
473904.01000214,5370971.73999023,103.36000061,1.000000
473902.86000061,5370972.03002930,98.41999817,1.000000
473903.91000366,5370971.98999023,104.79000092,1.000000
473902.80000305,5370972.27001953,100.02999878,1.000000
473903.66999817,5370972.28002930,105.62000275,1.000000
473902.98000336,5370972.67999268,104.55000305,1.000000
473902.65000153,5370972.97998047,104.97000122,1.000000
473902.08999634,5370973.34997559,104.48999786,1.000000
473901.86000061,5370973.64001465,105.33999634,1.000000
473902.01999664,5370973.80999756,107.86000061,1.000000
473901.63999939,5370974.14001465,108.11000061,1.000000
473900.83000183,5370974.23999023,108.45999908,1.000000
473901.52999878,5370973.82000732,109.47000122,1.000000
473902.11000061,5370973.42999268,109.98999786,1.000000
473902.08000183,5370973.20001221,107.87999725,1.000000
473902.26999664,5370972.90997314,106.73999786,1.000000
473902.51999664,5370972.60998535,105.84999847,1.000000
473902.81999969,5370972.28997803,105.12000275,1.000000
473901.66999817,5370972.58001709,100.22000122,1.000000
473903.31999969,5370971.90997314,105.26000214,1.000000
473903.40000153,5370971.65002441,103.61000061,1.000000
473902.20999908,5370971.95001221,98.54000092,1.000000
473903.77999878,5370971.30999756,103.23999786,1.000000
473902.63999939,5370971.59002686,98.31999969,1.000000
473903.13999939,5370971.21997070,98.41999817,1.000000
473903.05999756,5370970.98999023,96.05999756,1.000000
473903.55999756,5370970.61999512,96.18000031,1.000000
473904.58000183,5370970.11999512,98.58000183,1.000000
473905.31999969,5370969.69000244,99.76999664,1.000000
473907.43000031,5370968.91998291,106.91999817,1.000000
473905.58000183,5370969.36999512,98.86000061,1.000000
473907.61000061,5370968.64001465,105.76000214,1.000000
473906.19999695,5370968.97998047,99.59999847,1.000000
473908.01999664,5370968.28997803,105.51000214,1.000000
473906.54000092,5370968.65002441,99.02999878,1.000000
473907.05000305,5370968.28002930,99.26999664,1.000000
473905.41000366,5370968.66998291,92.06999969,2.000000
473907.97000122,5370967.82000732,101.31999969,1.000000
473905.83000183,5370968.33001709,91.91000366,2.000000
473911.51999664,5370966.72998047,115.01000214,1.000000
473908.65000153,5370967.40997314,102.33000183,1.000000
473906.29000092,5370967.96997070,91.90000153,1.000000
473912.05000305,5370966.35998535,115.38999939,1.000000
473912.51000214,5370966.02001953,115.47000122,1.000000
473910.19000244,5370966.55999756,105.18000031,1.000000
473912.87000275,5370965.69000244,115.12000275,1.000000
473912.12999725,5370965.86999512,111.83999634,1.000000
473911.51000214,5370966.01000977,109.05000305,1.000000
473910.56999969,5370966.22998047,104.88999939,1.000000
473913.00000000,5370965.42999268,113.77999878,1.000000
473913.58000183,5370965.04998779,114.37999725,1.000000
473914.16999817,5370964.66998291,115.05999756,1.000000
473914.29000092,5370964.40997314,113.62000275,1.000000
473910.76999664,5370965.21002197,97.83000183,1.000000
473911.25000000,5370964.35998535,93.95999908,1.000000
473910.86000061,5370964.47998047,110.75000000,1.000000
473911.37000275,5370964.59002686,114.95999908,1.000000
473910.72000122,5370964.97998047,113.98000336,1.000000
473910.33000183,5370965.29998779,114.19999695,1.000000
473907.76000214,5370965.90997314,102.84999847,1.000000
473905.02999878,5370966.55999756,90.80999756,2.000000
473907.37999725,5370966.22998047,103.08000183,1.000000
473908.43000031,5370966.20001221,109.58000183,1.000000
473906.94999695,5370966.55999756,103.05999756,1.000000
473909.79000092,5370966.09997559,117.41000366,1.000000
473907.54000092,5370966.65002441,107.54000092,1.000000
473906.38999939,5370966.91998291,102.51000214,1.000000
473906.94999695,5370967.01000977,106.83000183,1.000000
473905.87000275,5370967.27001953,102.08000183,1.000000
473903.47000122,5370967.84997559,91.58999634,2.000000
473906.51999664,5370967.34002686,106.73999786,1.000000
473906.04000092,5370967.67999268,106.50000000,1.000000
473905.01000214,5370967.92999268,102.04000092,1.000000
473905.40000153,5370968.04998779,105.55000305,1.000000
473904.08999634,5370968.38000488,99.87000275,1.000000
473902.66000366,5370968.72998047,93.63999939,1.000000
473903.51000214,5370968.73999023,99.13999939,1.000000
473902.45999908,5370969.00000000,94.59999847,1.000000
473901.97000122,5370969.11999512,92.48000336,1.000000
473903.26000214,5370969.02001953,99.94999695,1.000000
473901.63999939,5370969.42999268,92.91999817,1.000000
473901.33000183,5370969.72998047,93.45999908,1.000000
473901.01999664,5370970.03002930,93.98000336,1.000000
473905.01999664,5370969.23999023,113.01000214,1.000000
473902.48999786,5370969.88000488,102.12999725,1.000000
473900.56999969,5370970.36999512,93.91000366,1.000000
473902.18000031,5370970.17999268,102.62999725,1.000000
473903.90000153,5370969.96997070,111.83999634,1.000000
473901.58000183,5370970.55999756,101.94000244,1.000000
473903.51000214,5370970.28997803,112.05000305,1.000000
473901.98999786,5370970.67999268,105.56999969,1.000000
473900.52999878,5370971.05999756,99.33999634,1.000000
473901.43000031,5370971.04998779,105.01999664,1.000000
473900.08000183,5370971.39001465,99.26999664,1.000000
473901.36000061,5370971.28997803,106.58999634,1.000000
473901.05999756,5370971.59997559,107.19000244,1.000000
473898.76999664,5370972.19000244,97.51000214,1.000000
473900.51000214,5370971.96002197,106.68000031,1.000000
473898.80999756,5370972.40002441,99.51000214,1.000000
473897.12999725,5370972.84002686,92.41999817,1.000000
473898.54000092,5370972.70001221,100.26999664,1.000000
473896.59999847,5370973.21002197,92.09999847,1.000000
473898.02999878,5370973.05999756,99.98999786,1.000000
473896.19999695,5370973.53997803,92.29000092,1.000000
473897.26000214,5370973.47998047,98.58999634,1.000000
473895.68000031,5370973.90002441,91.98000336,1.000000
473897.16000366,5370973.73999023,100.01000214,1.000000
473896.52999878,5370973.90002441,97.38999939,1.000000
473895.16999817,5370974.26000977,91.70999908,1.000000
473896.58000183,5370974.10998535,99.41000366,1.000000
473896.34999847,5370973.91998291,100.95999908,1.000000
473896.48999786,5370973.63000488,99.54000092,1.000000
473894.56999969,5370974.14001465,91.51000214,1.000000
473896.54000092,5370973.36999512,97.70999908,1.000000
473895.11000061,5370973.75000000,91.75000000,1.000000
473897.38999939,5370972.90002441,99.23000336,1.000000
473895.66000366,5370973.34997559,91.97000122,1.000000
473898.04000092,5370972.47998047,99.95999908,1.000000
473898.37999725,5370972.14001465,99.30000305,1.000000
473900.66999817,5370971.28997803,106.94000244,1.000000
473898.63999939,5370971.82000732,98.36000061,1.000000
473897.23999786,5370972.17999268,92.40000153,1.000000
473900.94000244,5370970.97998047,106.08000183,1.000000
473897.72000122,5370971.80999756,92.44000244,1.000000
473901.16999817,5370970.66998291,105.01000214,1.000000
473899.79000092,5370971.02001953,99.13999939,1.000000
473898.20999908,5370971.41998291,92.44000244,1.000000
473903.23999786,5370969.89001465,111.80000305,1.000000
473900.26000214,5370970.65002441,99.08999634,1.000000
473898.62000275,5370971.07000732,92.12000275,2.000000
473903.69999695,5370969.53002930,111.79000092,1.000000
473900.76000214,5370970.28002930,99.23000336,1.000000
473904.55000305,5370969.07000732,113.41000366,1.000000
473901.98999786,5370969.71997070,102.44999695,1.000000
473900.66999817,5370970.04998779,96.80999756,1.000000
473904.97000122,5370968.71997070,113.26999664,1.000000
473900.11000061,5370969.95001221,92.37000275,1.000000
473905.25000000,5370968.41998291,112.50000000,1.000000
473900.58000183,5370969.58001709,92.38999939,1.000000
473902.83999634,5370968.77001953,100.15000153,1.000000
473901.08999634,5370969.21002197,92.59999847,1.000000
473904.56999969,5370968.09997559,105.62000275,1.000000
473903.23000336,5370968.42999268,99.83000183,1.000000
473901.52999878,5370968.84997559,92.47000122,1.000000
473905.18000031,5370967.71997070,106.36000061,1.000000
473903.72000122,5370968.08001709,100.00000000,1.000000
473905.47000122,5370967.40002441,105.66000366,1.000000
473904.55000305,5370967.63000488,101.63999939,1.000000
473906.40000153,5370966.95001221,107.79000092,1.000000
473906.91000366,5370966.58001709,108.08999634,1.000000
473905.61000061,5370966.90002441,102.37000275,1.000000
473909.48999786,5370965.71997070,117.47000122,1.000000
473909.84999847,5370965.40997314,117.13999939,1.000000
473906.59999847,5370966.19000244,102.86000061,1.000000
473910.65000153,5370964.97998047,118.76000214,1.000000
473908.56999969,5370965.47998047,109.58999634,1.000000
473907.11000061,5370965.83001709,103.16000366,1.000000
473911.16999817,5370964.63000488,119.11000061,1.000000
473909.11000061,5370965.10998535,110.05999756,1.000000
473907.45999908,5370965.51000977,102.73999786,1.000000
473910.05999756,5370964.65997314,112.34999847,1.000000
473907.23000336,5370965.32000732,99.83000183,1.000000
473906.26000214,5370964.73999023,107.55000305,1.000000
473905.86000061,5370965.05999756,107.68000031,1.000000
473905.90000153,5370965.27001953,109.73000336,1.000000
473905.63999939,5370965.57000732,110.43000031,1.000000
473905.31999969,5370965.86999512,110.93000031,1.000000
473904.56999969,5370966.04998779,107.66000366,1.000000
473904.43000031,5370966.30999756,108.88999939,1.000000
473904.08000183,5370966.61999512,109.20999908,1.000000
473902.83999634,5370966.91998291,103.88999939,1.000000
473904.44000244,5370966.75000000,112.61000061,1.000000
473902.44000244,5370967.25000000,103.98999786,1.000000
473900.93000031,5370967.63000488,97.48999786,1.000000
473899.58000183,5370967.96002197,91.69999695,1.000000
473904.08000183,5370967.05999756,112.87000275,1.000000
473901.98000336,5370967.58001709,103.86000061,1.000000
473899.12999725,5370968.29998779,91.61000061,1.000000
473903.69999695,5370967.38000488,113.08000183,1.000000
473902.94999695,5370967.78997803,111.69999695,1.000000
473902.52999878,5370968.11999512,111.76000214,1.000000
473901.73000336,5370968.32000732,108.33999634,1.000000
473900.47000122,5370968.64001465,102.94999695,1.000000
473901.01000214,5370968.72998047,107.12999725,1.000000
473899.90000153,5370969.01000977,102.41000366,1.000000
473897.44000244,5370969.64001465,91.94000244,1.000000
473900.62999725,5370969.04998779,107.34999847,1.000000
473899.45999908,5370969.34997559,102.40000153,1.000000
473898.98999786,5370969.70001221,102.26000214,1.000000
473896.40000153,5370970.35998535,91.30000305,1.000000
473898.45999908,5370970.05999756,101.91999817,1.000000
473897.13999939,5370970.40002441,96.31999969,1.000000
473895.90000153,5370970.71997070,91.09999847,1.000000
473897.55999756,5370970.52001953,99.98000336,1.000000
473896.69000244,5370970.73999023,96.30999756,1.000000
473895.55000305,5370971.03997803,91.50000000,1.000000
473897.08999634,5370970.86999512,99.87000275,1.000000
473895.11000061,5370971.39001465,91.55999756,1.000000
473896.68000031,5370971.20001221,100.05000305,1.000000
473896.58999634,5370971.45001221,101.51000214,1.000000
473894.05999756,5370972.11999512,90.93000031,1.000000
473896.19000244,5370971.78002930,101.69000244,1.000000
473893.56999969,5370972.47998047,90.75000000,1.000000
473895.56999969,5370972.16998291,100.95999908,1.000000
473895.18000031,5370972.50000000,101.13999939,1.000000
473894.12999725,5370972.78002930,96.77999878,1.000000
473894.73999786,5370972.84002686,101.18000031,1.000000
473892.44999695,5370973.45001221,91.66999817,1.000000
473891.88999939,5370973.82000732,91.19000244,1.000000
473891.33000183,5370974.20001221,90.69999695,1.000000
473890.65000153,5370974.15002441,90.41000366,1.000000
473891.15000153,5370973.77001953,90.48000336,1.000000
473891.76000214,5370973.36999512,91.05000305,1.000000
473892.30999756,5370972.96997070,91.33000183,1.000000
473894.94999695,5370972.02001953,100.31999969,1.000000
473895.40000153,5370971.66998291,100.20999908,1.000000
473895.98000336,5370971.27001953,100.62999725,1.000000
473896.47000122,5370970.89001465,100.69000244,1.000000
473896.66999817,5370970.59997559,99.58000183,1.000000
