//X,Y,Z,Scalar field
472546.50000000,5370060.02000046,65.27999878,1.000000
472546.04003906,5370060.27000046,65.52999878,1.000000
472545.56005859,5370060.54999924,65.62000275,1.000000
472545.06994629,5370060.84000015,65.62999725,1.000000
472544.54003906,5370061.20000076,65.33000183,1.000000
472544.03002930,5370061.52000046,65.19999695,1.000000
472543.50000000,5370061.86999893,64.90000153,1.000000
472542.97998047,5370062.20000076,64.69000244,1.000000
472542.45996094,5370062.54000092,64.44999695,1.000000
472541.93994141,5370062.86999893,64.33000183,1.000000
472542.34997559,5370063.02000046,64.47000122,1.000000
472542.91003418,5370062.66999817,64.59999847,1.000000
472543.48999023,5370062.29999924,64.90000153,1.000000
472544.05004883,5370061.93999863,65.12000275,1.000000
472544.61999512,5370061.56999969,65.34999847,1.000000
472545.18994141,5370061.20999908,65.59999847,1.000000
472545.72998047,5370060.88000107,65.62999725,1.000000
472546.21997070,5370060.61999893,65.33999634,1.000000
472546.72998047,5370060.33000183,65.22000122,1.000000
472547.22998047,5370060.04999924,65.00000000,1.000000
472547.71997070,5370059.77999878,64.73000336,1.000000
472547.90002441,5370059.93999863,62.22999954,1.000000
472548.11999512,5370060.04999924,59.95000076,1.000000
472548.56005859,5370059.86000061,59.29999924,1.000000
472549.08996582,5370059.54000092,59.40999985,1.000000
472549.59997559,5370059.24000168,59.34999847,1.000000
472550.29003906,5370058.66999817,60.75999832,1.000000
472551.86999512,5370059.41999817,62.13000107,1.000000
472551.33996582,5370059.77000046,61.86000061,1.000000
472550.58996582,5370060.41999817,59.93000031,1.000000
472550.08996582,5370060.74000168,59.75999832,1.000000
472549.95996094,5370060.52999878,62.47999954,1.000000
472549.64001465,5370060.59999847,63.70000076,1.000000
472549.18005371,5370060.84999847,63.90999985,1.000000
472548.71997070,5370061.11000061,64.11000061,1.000000
472548.26000977,5370061.36999893,64.23999786,1.000000
472547.79003906,5370061.61999893,64.48999786,1.000000
472547.31994629,5370061.88999939,64.63999939,1.000000
472546.85998535,5370062.13999939,64.87000275,1.000000
472546.38000488,5370062.41999817,64.98000336,1.000000
472545.92004395,5370062.66999817,65.26999664,1.000000
472545.44995117,5370062.93999863,65.40000153,1.000000
472544.97998047,5370063.20000076,65.63999939,1.000000
472544.45996094,5370063.52000046,65.50000000,1.000000
472543.94995117,5370063.84999847,65.34999847,1.000000
472543.42004395,5370064.19000244,65.13999939,1.000000
472543.40002441,5370064.59999847,65.11000061,1.000000
472543.95996094,5370064.23999786,65.31999969,1.000000
472544.54003906,5370063.86999893,65.55999756,1.000000
472545.08996582,5370063.54999924,65.55000305,1.000000
472545.59997559,5370063.25999832,65.38999939,1.000000
472546.09997559,5370062.99000168,65.09999847,1.000000
472546.60998535,5370062.70000076,64.95999908,1.000000
472547.09997559,5370062.43000031,64.66999817,1.000000
472547.61999512,5370062.13999939,64.52999878,1.000000
472548.09997559,5370061.88000107,64.26999664,1.000000
472548.60998535,5370061.59000015,64.15000153,1.000000
472549.08996582,5370061.33000183,63.86000061,1.000000
472549.58996582,5370061.04999924,63.77000046,1.000000
472550.06005859,5370060.79000092,63.47000122,1.000000
472550.54003906,5370060.52999878,63.27999878,1.000000
472550.45996094,5370061.04999924,58.90000153,1.000000
472551.15002441,5370060.47999954,60.31999969,1.000000
472551.85998535,5370059.90000153,61.81999969,1.000000
472552.96997070,5370061.31000137,59.77999878,1.000000
472552.30004883,5370061.86000061,58.38000107,1.000000
472551.78002930,5370062.20000076,58.09000015,2.000000
472551.31994629,5370062.45999908,58.31999969,1.000000
472550.86999512,5370062.68999863,58.63000107,1.000000
472550.41003418,5370062.95999908,58.75999832,1.000000
472549.95996094,5370063.18999863,59.09999847,1.000000
472550.04003906,5370062.70000076,63.27000046,1.000000
472549.58996582,5370062.95000076,63.52999878,1.000000
472549.10998535,5370063.22000122,63.68000031,1.000000
472548.66003418,5370063.47000122,63.90000153,1.000000
472548.18994141,5370063.74000168,64.01000214,1.000000
472547.72998047,5370063.99000168,64.23000336,1.000000
472547.26000977,5370064.26000214,64.40000153,1.000000
472546.80004883,5370064.50000000,64.66999817,1.000000
472546.31994629,5370064.77999878,64.76999664,1.000000
472545.86999512,5370065.02999878,65.01999664,1.000000
472545.39001465,5370065.30000305,65.16000366,1.000000
472544.93005371,5370065.55000305,65.44999695,1.000000
472544.45996094,5370065.81999969,65.56999969,1.000000
472544.83996582,5370066.05000305,65.27999878,1.000000
472545.34997559,5370065.76000214,65.16000366,1.000000
472545.84997559,5370065.48000336,64.91000366,1.000000
472546.34997559,5370065.19999695,64.75000000,1.000000
472546.82995605,5370064.94000244,64.45999908,1.000000
472547.33996582,5370064.65000153,64.33999634,1.000000
472547.81994629,5370064.38999939,64.08000183,1.000000
472548.31005859,5370064.12000275,63.88999939,1.000000
472548.79003906,5370063.86000061,63.65999985,1.000000
472549.29003906,5370063.58000183,63.52999878,1.000000
472549.77001953,5370063.31000137,63.27999878,1.000000
472549.65002441,5370063.88999939,58.58000183,2.000000
472550.16003418,5370063.58000183,58.59999847,2.000000
472550.68005371,5370063.27000046,58.54999924,2.000000
472551.18005371,5370062.97999954,58.45999908,1.000000
472551.65002441,5370062.74000168,58.09000015,2.000000
472552.19995117,5370062.38999939,58.33000183,1.000000
472552.73999023,5370062.04999924,58.47000122,2.000000
472553.25000000,5370061.75000000,58.40999985,2.000000
472554.61999512,5370062.77999878,58.56000137,1.000000
472554.10998535,5370063.09000015,58.47999954,2.000000
472553.64001465,5370063.36999893,58.61000061,1.000000
472553.14001465,5370063.68000031,58.50000000,1.000000
472552.65002441,5370063.95999908,58.56999969,1.000000
472552.15002441,5370064.27999878,58.43000031,1.000000
472551.60998535,5370064.63999939,58.13000107,1.000000
472550.65002441,5370065.19999695,58.31999969,1.000000
472550.16003418,5370065.48000336,58.43999863,1.000000
472549.68994141,5370065.73999786,58.61999893,1.000000
472549.21997070,5370065.62999725,62.38000107,1.000000
472548.88000488,5370065.72000122,63.43000031,1.000000
472548.42004395,5370065.98000336,63.63000107,1.000000
472547.94995117,5370066.23000336,63.86000061,1.000000
472547.50000000,5370066.48000336,64.08000183,1.000000
472547.03002930,5370066.75000000,64.19000244,1.000000
472546.58996582,5370066.98999786,64.47000122,1.000000
472546.11999512,5370067.26000214,64.55000305,1.000000
472546.33996582,5370067.56999969,64.52999878,1.000000
472546.81005859,5370067.31999969,64.19999695,1.000000
472547.31994629,5370067.02999878,64.05999756,1.000000
472547.80004883,5370066.76999664,63.84000015,1.000000
472548.30004883,5370066.48000336,63.72000122,1.000000
472548.78002930,5370066.22000122,63.47000122,1.000000
472549.26000977,5370065.95999908,63.22999954,1.000000
472549.42004395,5370066.13999939,60.66999817,1.000000
472549.77001953,5370066.06999969,59.40000153,1.000000
472550.61999512,5370065.69999695,58.13000107,1.000000
472552.19995117,5370064.72000122,58.43000031,1.000000
472552.73999023,5370064.37999725,58.58000183,1.000000
472553.22998047,5370064.09999847,58.45000076,2.000000
472553.77001953,5370063.77000046,58.54000092,2.000000
472554.28002930,5370063.47000122,58.50000000,2.000000
472554.79003906,5370063.16999817,58.47000122,1.000000
472556.02001953,5370064.25000000,58.34999847,2.000000
472555.56005859,5370064.51999664,58.50000000,1.000000
472555.07995605,5370064.80999756,58.50000000,1.000000
472554.60998535,5370065.06999969,58.66999817,1.000000
472554.11999512,5370065.37000275,58.61000061,2.000000
472553.65002441,5370065.65000153,58.66999817,1.000000
472553.15002441,5370065.94999695,58.61999893,2.000000
472552.67004395,5370066.23999786,58.63000107,2.000000
472552.20996094,5370066.51000214,58.74000168,2.000000
472551.79003906,5370066.69999695,59.22999954,1.000000
472551.31005859,5370066.98999786,59.25999832,1.000000
472550.82995605,5370067.27999878,59.29999924,1.000000
472550.31994629,5370067.58999634,59.20999908,1.000000
472549.84997559,5370067.87000275,59.29999924,1.000000
472549.32995605,5370068.19000244,59.20999908,2.000000
472548.86999512,5370068.44000244,59.45999908,1.000000
472548.90002441,5370068.02999878,63.20000076,1.000000
472548.38000488,5370068.73000336,59.50000000,1.000000
472548.41003418,5370068.30000305,63.33000183,1.000000
472547.93005371,5370068.58000183,63.47000122,1.000000
472547.46997070,5370068.83000183,63.72000122,1.000000
472547.66003418,5370069.16999817,63.59999847,1.000000
472548.16003418,5370068.88999939,63.47000122,1.000000
472548.64001465,5370068.63999939,63.13000107,1.000000
472548.10998535,5370069.34999847,59.36000061,2.000000
472548.65002441,5370069.01999664,59.47000122,1.000000
472549.16003418,5370068.73000336,59.38000107,1.000000
472549.68994141,5370068.41000366,59.36999893,1.000000
472550.18994141,5370068.12000275,59.24000168,2.000000
472550.70996094,5370067.80999756,59.25999832,1.000000
472551.22998047,5370067.51000214,59.15999985,2.000000
472551.76000977,5370067.19999695,59.18000031,1.000000
472552.28002930,5370066.87999725,59.20000076,1.000000
472552.82995605,5370066.52999878,59.36999893,1.000000
472553.30004883,5370066.29000092,58.99000168,1.000000
472553.78002930,5370066.04000092,58.72000122,1.000000
472554.29003906,5370065.73999786,58.61999893,2.000000
472554.80004883,5370065.44000244,58.61999893,1.000000
472555.30004883,5370065.16000366,58.45000076,2.000000
472555.81005859,5370064.86000061,58.43000031,2.000000
472556.30004883,5370064.56999969,58.34999847,2.000000
472557.06994629,5370066.00000000,58.29999924,2.000000
472556.58996582,5370066.27999878,58.43000031,2.000000
472556.08996582,5370066.58000183,58.45000076,2.000000
472555.61999512,5370066.84999847,58.59000015,1.000000
472555.10998535,5370067.15000153,58.59999847,2.000000
472554.64001465,5370067.41000366,58.86999893,1.000000
472554.16003418,5370067.69000244,58.95000076,2.000000
472553.68005371,5370067.95999908,59.13999939,1.000000
472553.18994141,5370068.23999786,59.22999954,2.000000
472552.71997070,5370068.51000214,59.36000061,2.000000
472552.21997070,5370068.80000305,59.43000031,2.000000
472551.75000000,5370069.06999969,59.61000061,1.000000
472551.23999023,5370069.37999725,59.50000000,2.000000
472550.76000977,5370069.66999817,59.58000183,1.000000
472550.27001953,5370069.95999908,59.58000183,2.000000
472549.79003906,5370070.23999786,59.68000031,1.000000
472549.30004883,5370070.52999878,59.68000031,2.000000
472548.82995605,5370070.80000305,59.81000137,1.000000
472549.18005371,5370071.04000092,59.72999954,2.000000
472549.70996094,5370070.72000122,59.74000168,1.000000
472550.21997070,5370070.44000244,59.59999847,2.000000
472550.75000000,5370070.11000061,59.66999817,1.000000
472551.26000977,5370069.81999969,59.52999878,2.000000
472551.79003906,5370069.50000000,59.59999847,1.000000
472552.28002930,5370069.22000122,59.40000153,2.000000
472552.81005859,5370068.91000366,59.40999985,1.000000
472553.30004883,5370068.63999939,59.20000076,2.000000
472553.81005859,5370068.33000183,59.18999863,1.000000
472554.30004883,5370068.06999969,58.93000031,2.000000
472554.81005859,5370067.76999664,58.88999939,1.000000
472555.28002930,5370067.51000214,58.65000153,2.000000
472555.79003906,5370067.20999908,58.63000107,1.000000
472556.28002930,5370066.94000244,58.49000168,2.000000
472556.78002930,5370066.62999725,58.50999832,1.000000
472557.26000977,5370066.36000061,58.34999847,1.000000
472558.54003906,5370067.41000366,58.40000153,1.000000
472558.03002930,5370067.73000336,58.34999847,2.000000
472557.54003906,5370068.01999664,58.40999985,2.000000
472557.04003906,5370068.31999969,58.36999893,2.000000
472556.56994629,5370068.56999969,58.61000061,1.000000
472556.07995605,5370068.87000275,58.61000061,2.000000
472555.60998535,5370069.13999939,58.75000000,1.000000
472555.11999512,5370069.43000031,58.77999878,2.000000
472554.66003418,5370069.69000244,58.93999863,2.000000
472554.18005371,5370069.97000122,59.04000092,1.000000
472553.70996094,5370070.23000336,59.20000076,1.000000
472553.22998047,5370070.52999878,59.18999863,2.000000
472552.76000977,5370070.77999878,59.40999985,1.000000
472552.28002930,5370071.06999969,59.43000031,2.000000
472551.81994629,5370071.33000183,59.63000107,2.000000
472551.32995605,5370071.61000061,59.70000076,2.000000
472550.85998535,5370071.88999939,59.79999924,2.000000
472550.36999512,5370072.18000031,59.81000137,2.000000
472550.59997559,5370072.45999908,59.93000031,1.000000
472551.09997559,5370072.18000031,59.79000092,2.000000
472551.61999512,5370071.87999725,59.70000076,2.000000
472552.13000488,5370071.58999634,59.56999969,2.000000
472552.63000488,5370071.30000305,59.45999908,1.000000
472553.13000488,5370071.02999878,59.22999954,2.000000
472553.65002441,5370070.72000122,59.18999863,1.000000
472554.15002441,5370070.44000244,58.97999954,2.000000
472554.67004395,5370070.13999939,58.88999939,2.000000
472555.18994141,5370069.83999634,58.84000015,2.000000
472555.71997070,5370069.52999878,58.79999924,1.000000
472556.22998047,5370069.23999786,58.66999817,1.000000
472556.75000000,5370068.93000031,58.63000107,1.000000
472557.25000000,5370068.65000153,58.40000153,2.000000
472557.79003906,5370068.31999969,58.52000046,1.000000
472558.29003906,5370068.04000092,58.38000107,2.000000
472558.81005859,5370067.72000122,58.40000153,1.000000
472559.93994141,5370068.93000031,58.43999863,2.000000
472559.46997070,5370069.20999908,58.56999969,1.000000
472558.97998047,5370069.50000000,58.54999924,1.000000
472558.47998047,5370069.80000305,58.54000092,2.000000
472557.98999023,5370070.09999847,58.54000092,2.000000
472557.52001953,5370070.37000275,58.63000107,2.000000
472557.03002930,5370070.66999817,58.59000015,2.000000
472556.55004883,5370070.94999695,58.65999985,2.000000
472556.08996582,5370071.20999908,58.77999878,2.000000
472555.64001465,5370071.47000122,58.95000076,1.000000
472555.16003418,5370071.76000214,58.91999817,2.000000
472554.69995117,5370072.01999664,59.06000137,2.000000
472554.20996094,5370072.31999969,58.99000168,2.000000
472553.76000977,5370072.58000183,59.15999985,2.000000
472553.27001953,5370072.86000061,59.18999863,2.000000
472552.81994629,5370073.11000061,59.43999863,1.000000
472552.33996582,5370073.38999939,59.47000122,2.000000
472551.88000488,5370073.65000153,59.70999908,1.000000
472551.40002441,5370073.91999817,59.83000183,2.000000
472551.64001465,5370074.23000336,59.84000015,1.000000
472552.11999512,5370073.95999908,59.63000107,2.000000
472552.60998535,5370073.69000244,59.50000000,2.000000
472553.08996582,5370073.41999817,59.29000092,2.000000
472553.58996582,5370073.12999725,59.24000168,1.000000
472554.06994629,5370072.86000061,59.04999924,2.000000
472554.58996582,5370072.55000305,59.06999969,1.000000
472555.07995605,5370072.26000214,58.99000168,2.000000
472555.57995605,5370071.97000122,58.95000076,1.000000
472556.07995605,5370071.69000244,58.83000183,2.000000
472556.56994629,5370071.40000153,58.72999954,2.000000
472557.06994629,5370071.12000275,58.61999893,2.000000
472557.58996582,5370070.80000305,58.70000076,1.000000
472558.06994629,5370070.52999878,58.54000092,2.000000
472558.60998535,5370070.19000244,58.66999817,1.000000
472559.09997559,5370069.91000366,58.52999878,2.000000
472559.61999512,5370069.59999847,58.58000183,1.000000
472560.11999512,5370069.30999756,58.52000046,1.000000
472561.42004395,5370070.38999939,58.70000076,1.000000
472560.93994141,5370070.69999695,58.61000061,2.000000
472560.44995117,5370070.98999786,58.65000153,2.000000
472559.96997070,5370071.26000214,58.70999908,1.000000
472559.50000000,5370071.55000305,58.72999954,1.000000
472559.00000000,5370071.84999847,58.70999908,1.000000
472558.53002930,5370072.12000275,58.81999969,1.000000
472558.03002930,5370072.43000031,58.74000168,2.000000
472557.56005859,5370072.69999695,58.86999893,2.000000
472557.06994629,5370073.00000000,58.86999893,2.000000
472556.57995605,5370073.29000092,58.86000061,2.000000
472556.09997559,5370073.56999969,58.93999863,2.000000
472555.63000488,5370073.83000183,59.11999893,1.000000
472555.14001465,5370074.12999725,59.09000015,2.000000
472554.67004395,5370074.40000153,59.22000122,1.000000
472554.17004395,5370074.70999908,59.15000153,2.000000
472553.69995117,5370074.97000122,59.31999969,1.000000
472553.19995117,5370075.26999664,59.31999969,2.000000
472552.73999023,5370075.51999664,59.52999878,1.000000
472553.10998535,5370075.76000214,59.36000061,2.000000
472553.61999512,5370075.45999908,59.29999924,2.000000
472554.13000488,5370075.16999817,59.20999908,2.000000
472554.66003418,5370074.84999847,59.20000076,1.000000
472555.17004395,5370074.56999969,59.06999969,2.000000
472555.68005371,5370074.26000214,59.06999969,1.000000
472556.18994141,5370073.98000336,58.88000107,2.000000
472556.70996094,5370073.66000366,58.90999985,1.000000
472557.20996094,5370073.37000275,58.81000137,2.000000
472557.73999023,5370073.05000305,58.84999847,2.000000
472558.25000000,5370072.76000214,58.77000046,2.000000
472558.77001953,5370072.44999695,58.81000137,1.000000
472559.26000977,5370072.16999817,58.66999817,2.000000
472559.77001953,5370071.84999847,58.75999832,1.000000
472560.27001953,5370071.56999969,58.63000107,2.000000
472560.79003906,5370071.25000000,58.70000076,1.000000
472561.27001953,5370070.97000122,58.63000107,2.000000
472562.47998047,5370072.11000061,58.75000000,1.000000
472561.97998047,5370072.41999817,58.68999863,2.000000
472561.50000000,5370072.69999695,58.81000137,1.000000
472561.01000977,5370073.00000000,58.75999832,2.000000
472560.52001953,5370073.27999878,58.83000183,1.000000
472560.03002930,5370073.58000183,58.81999969,2.000000
472559.54003906,5370073.86000061,58.88999939,1.000000
472559.04003906,5370074.16999817,58.86000061,2.000000
472558.56994629,5370074.44000244,59.00000000,1.000000
472558.05004883,5370074.76000214,58.86999893,2.000000
472557.56994629,5370075.04000092,58.97000122,2.000000
472557.07995605,5370075.33000183,59.04000092,2.000000
472556.58996582,5370075.62000275,59.11000061,1.000000
472556.07995605,5370075.93000031,59.04999924,2.000000
472555.60998535,5370076.19999695,59.20000076,1.000000
472555.09997559,5370076.50000000,59.18000031,2.000000
472554.63000488,5370076.76999664,59.36999893,1.000000
472554.13000488,5370077.06999969,59.36000061,2.000000
472554.58996582,5370077.23999786,59.43000031,1.000000
472555.08996582,5370076.97000122,59.20000076,2.000000
472555.59997559,5370076.66999817,59.16999817,2.000000
472556.11999512,5370076.36000061,59.11999893,2.000000
472556.64001465,5370076.05999756,59.09000015,2.000000
472557.15002441,5370075.76000214,59.02999878,2.000000
472557.67004395,5370075.44999695,59.00000000,2.000000
472558.18005371,5370075.15000153,58.97000122,2.000000
472558.68994141,5370074.84999847,58.95999908,2.000000
472559.20996094,5370074.54000092,58.90999985,2.000000
472559.72998047,5370074.22000122,58.97000122,1.000000
472560.21997070,5370073.94000244,58.84999847,2.000000
472560.75000000,5370073.62000275,58.93000031,1.000000
472561.25000000,5370073.33999634,58.77000046,2.000000
472561.76000977,5370073.04000092,58.79000092,1.000000
472562.26000977,5370072.75000000,58.68000031,2.000000
472562.77001953,5370072.44000244,58.72999954,1.000000
472563.92004395,5370073.65000153,58.72000122,2.000000
472563.43994141,5370073.93000031,58.79000092,2.000000
472562.95996094,5370074.22000122,58.81999969,2.000000
472562.47998047,5370074.48999786,58.93999863,1.000000
472561.98999023,5370074.79000092,58.88999939,2.000000
472561.53002930,5370075.05000305,59.02000046,1.000000
472561.03002930,5370075.36000061,58.95999908,2.000000
472560.56005859,5370075.63999939,59.04000092,1.000000
472560.07995605,5370075.93000031,59.02000046,2.000000
472559.60998535,5370076.19000244,59.15999985,1.000000
472559.13000488,5370076.48000336,59.13999939,2.000000
472558.64001465,5370076.76999664,59.18999863,2.000000
472558.16003418,5370077.05999756,59.20000076,2.000000
472557.68005371,5370077.34999847,59.22999954,2.000000
472557.18005371,5370077.63999939,59.25000000,2.000000
472556.70996094,5370077.91000366,59.38999939,1.000000
472556.20996094,5370078.22000122,59.31999969,2.000000
472555.71997070,5370078.50000000,59.40999985,1.000000
472556.14001465,5370078.72000122,59.34000015,2.000000
472556.67004395,5370078.40000153,59.34999847,1.000000
472557.18005371,5370078.11000061,59.25000000,2.000000
472557.70996094,5370077.79000092,59.31999969,1.000000
472558.20996094,5370077.50000000,59.20000076,2.000000
472558.71997070,5370077.19999695,59.16999817,2.000000
472559.25000000,5370076.88999939,59.15999985,2.000000
472559.77001953,5370076.58000183,59.15999985,2.000000
472560.27001953,5370076.29000092,59.06000137,2.000000
472560.80004883,5370075.95999908,59.13999939,1.000000
472561.29003906,5370075.69000244,58.95999908,2.000000
472561.81005859,5370075.37000275,59.00999832,2.000000
472562.32995605,5370075.06999969,58.97000122,2.000000
472562.83996582,5370074.77999878,58.88999939,2.000000
472563.33996582,5370074.48000336,58.84000015,2.000000
472563.85998535,5370074.16999817,58.86000061,1.000000
472564.36999512,5370073.87999725,58.75999832,2.000000
472565.43005371,5370075.04000092,59.08000183,1.000000
472564.93005371,5370075.34999847,59.00999832,2.000000
472564.45996094,5370075.62000275,59.06000137,1.000000
472563.52001953,5370076.16000366,59.29000092,1.000000
472563.09997559,5370076.36000061,59.81000137,1.000000
472562.60998535,5370076.65000153,59.84999847,1.000000
472562.17004395,5370076.88999939,60.11999893,1.000000
472561.56005859,5370077.34999847,59.25999832,1.000000
472561.05004883,5370077.66999817,59.13000107,2.000000
472560.57995605,5370077.93000031,59.29999924,1.000000
472560.06994629,5370078.23999786,59.25000000,2.000000
472559.58996582,5370078.51999664,59.34000015,1.000000
472559.09997559,5370078.80999756,59.36000061,1.000000
472558.60998535,5370079.09999847,59.43000031,1.000000
472558.10998535,5370079.41000366,59.34999847,2.000000
472557.61999512,5370079.69000244,59.47999954,2.000000
472557.14001465,5370079.98000336,59.52000046,2.000000
472557.25000000,5370080.37999725,59.45999908,2.000000
472557.77001953,5370080.06999969,59.50999832,1.000000
472558.27001953,5370079.76999664,59.43000031,2.000000
472558.79003906,5370079.45999908,59.49000168,1.000000
472559.28002930,5370079.19000244,59.31000137,2.000000
472559.80004883,5370078.87999725,59.34999847,1.000000
472560.30004883,5370078.58000183,59.29000092,2.000000
472560.80004883,5370078.27999878,59.31999969,1.000000
472561.30004883,5370078.00000000,59.20000076,2.000000
472561.92004395,5370077.52999878,60.11000061,1.000000
472562.41003418,5370077.26000214,59.86000061,1.000000
472562.93005371,5370076.94999695,59.91999817,1.000000
472563.41003418,5370076.66999817,59.79000092,1.000000
472563.84997559,5370076.48000336,59.16999817,1.000000
472564.33996582,5370076.20999908,59.00999832,2.000000
472564.85998535,5370075.88999939,59.09999847,1.000000
472565.36999512,5370075.58999634,59.06999969,1.000000
472566.56005859,5370076.73999786,59.16999817,1.000000
472566.06005859,5370077.05000305,59.13000107,2.000000
472565.57995605,5370077.31999969,59.25999832,1.000000
472565.08996582,5370077.62999725,59.18999863,2.000000
472564.59997559,5370077.91000366,59.29999924,1.000000
472564.09997559,5370078.22000122,59.22000122,2.000000
472563.61999512,5370078.48999786,59.34000015,1.000000
472563.15002441,5370078.75000000,59.56999969,1.000000
472562.84997559,5370078.77999878,61.02000046,1.000000
472562.33996582,5370079.08999634,60.97000122,1.000000
472561.26000977,5370079.80999756,60.27999878,1.000000
472560.65002441,5370080.26000214,59.45999908,2.000000
472560.15002441,5370080.56999969,59.40999985,2.000000
472559.68005371,5370080.83999634,59.54999924,2.000000
472559.18005371,5370081.13999939,59.54000092,2.000000
472558.69995117,5370081.41000366,59.66999817,1.000000
472558.19995117,5370081.72000122,59.58000183,2.000000
472558.82995605,5370081.80000305,59.65999985,1.000000
472559.32995605,5370081.51000214,59.54999924,2.000000
472559.85998535,5370081.19000244,59.59000015,1.000000
472560.35998535,5370080.91000366,59.47000122,1.000000
472560.86999512,5370080.59999847,59.47000122,2.000000
472561.53002930,5370080.08999634,60.52999878,1.000000
472562.05004883,5370079.79000092,60.52000046,1.000000
472562.56994629,5370079.45999908,60.63999939,1.000000
472563.04003906,5370079.22000122,60.25999832,1.000000
472563.42004395,5370079.11000061,59.22999954,2.000000
472563.94995117,5370078.77999878,59.33000183,1.000000
472564.45996094,5370078.48000336,59.27000046,2.000000
472564.97998047,5370078.16999817,59.29999924,1.000000
472565.48999023,5370077.87000275,59.22000122,2.000000
472566.02001953,5370077.55999756,59.25000000,1.000000
472566.53002930,5370077.26000214,59.18999863,2.000000
472567.05004883,5370076.94999695,59.18000031,2.000000
472567.96997070,5370078.23000336,59.31000137,2.000000
472567.48999023,5370078.51000214,59.40000153,1.000000
472567.00000000,5370078.80999756,59.36000061,2.000000
472566.51000977,5370079.09999847,59.40999985,1.000000
472566.02001953,5370079.38999939,59.41999817,1.000000
472565.54003906,5370079.68000031,59.47000122,1.000000
472565.03002930,5370079.98999786,59.40000153,2.000000
472564.55004883,5370080.26999664,59.50999832,1.000000
472564.05004883,5370080.56999969,59.49000168,1.000000
472563.56994629,5370080.84999847,59.56000137,1.000000
472563.06994629,5370081.16000366,59.49000168,2.000000
472562.56994629,5370081.45999908,59.45999908,2.000000
472562.06994629,5370081.76000214,59.43999863,2.000000
472561.59997559,5370082.02999878,59.56000137,1.000000
472561.09997559,5370082.33999634,59.47999954,2.000000
472560.61999512,5370082.62000275,59.58000183,2.000000
472560.15002441,5370082.90000153,59.63999939,1.000000
472559.67004395,5370083.16999817,59.79000092,1.000000
472559.77001953,5370083.55999756,59.74000168,2.000000
472560.27001953,5370083.26999664,59.61999893,2.000000
472560.78002930,5370082.97000122,59.61000061,2.000000
472561.29003906,5370082.68000031,59.54000092,2.000000
472561.80004883,5370082.37999725,59.49000168,2.000000
472562.47998047,5370081.83999634,60.68999863,1.000000
472562.98999023,5370081.54000092,60.63999939,1.000000
472563.35998535,5370081.44000244,59.52999878,2.000000
472563.86999512,5370081.12999725,59.54999924,1.000000
472564.38000488,5370080.84999847,59.43999863,2.000000
472564.91003418,5370080.51999664,59.50999832,1.000000
472565.41003418,5370080.23000336,59.47999954,1.000000
472565.93994141,5370079.91000366,59.52999878,1.000000
472566.43994141,5370079.62000275,59.40000153,2.000000
472566.94995117,5370079.30000305,59.49000168,1.000000
472567.45996094,5370079.01999664,59.40000153,2.000000
472567.95996094,5370078.70999908,59.41999817,1.000000
472568.46997070,5370078.41999817,59.33000183,2.000000
472569.55004883,5370079.62999725,59.50999832,1.000000
472569.06005859,5370079.91999817,59.49000168,2.000000
472568.59997559,5370080.18000031,59.63999939,1.000000
472568.09997559,5370080.48999786,59.54999924,2.000000
472567.64001465,5370080.76000214,59.68000031,1.000000
472567.14001465,5370081.05999756,59.63999939,1.000000
472566.66003418,5370081.34999847,59.63000107,1.000000
472566.17004395,5370081.65000153,59.56999969,2.000000
472565.68994141,5370081.93000031,59.65000153,2.000000
472565.33996582,5370082.02999878,60.68999863,1.000000
472565.01000977,5370082.09999847,61.86999893,1.000000
472564.51000977,5370082.41000366,61.84000015,1.000000
472563.91003418,5370082.86000061,61.00000000,1.000000
472563.25000000,5370083.38999939,59.74000168,2.000000
472562.76000977,5370083.68000031,59.74000168,2.000000
472562.26000977,5370083.98999786,59.65999985,2.000000
472561.76000977,5370084.30000305,59.65999985,2.000000
472561.27001953,5370084.58000183,59.72000122,2.000000
472561.39001465,5370084.98000336,59.70999908,2.000000
472561.91003418,5370084.66999817,59.68999863,2.000000
472562.43005371,5370084.36000061,59.68999863,2.000000
472562.94995117,5370084.04000092,59.77999878,1.000000
472563.44995117,5370083.73999786,59.74000168,2.000000
472563.97998047,5370083.41999817,59.86999893,2.000000
472564.64001465,5370082.91000366,60.95000076,1.000000
472565.28002930,5370082.41999817,61.93999863,1.000000
472565.75000000,5370082.16000366,61.74000168,1.000000
472566.09997559,5370082.08000183,60.49000168,1.000000
472566.50000000,5370081.94000244,59.63999939,2.000000
472567.02001953,5370081.62000275,59.70000076,1.000000
472567.53002930,5370081.31999969,59.63999939,2.000000
472568.04003906,5370081.01999664,59.63999939,2.000000
472568.55004883,5370080.72000122,59.58000183,2.000000
472569.06994629,5370080.40000153,59.63000107,1.000000
472569.56994629,5370080.12000275,59.52000046,2.000000
472570.56005859,5370081.37000275,59.72000122,1.000000
472570.06994629,5370081.66000366,59.75999832,1.000000
472569.57995605,5370081.94999695,59.77999878,1.000000
472569.07995605,5370082.25000000,59.72000122,2.000000
472568.60998535,5370082.52999878,59.83000183,2.000000
472568.20996094,5370082.69999695,60.47000122,1.000000
472567.88000488,5370082.76999664,61.68999863,1.000000
472567.40002441,5370083.04000092,61.79999924,1.000000
472566.77001953,5370083.55000305,60.63000107,1.000000
472566.18005371,5370083.98000336,59.88000107,2.000000
472565.69995117,5370084.26000214,59.93999863,1.000000
472565.21997070,5370084.55999756,59.86000061,2.000000
472564.75000000,5370084.83000183,59.97000122,1.000000
472564.25000000,5370085.13999939,59.86999893,2.000000
472563.79003906,5370085.41000366,59.93999863,1.000000
472563.29003906,5370085.72000122,59.83000183,2.000000
472562.81994629,5370085.98999786,59.93999863,1.000000
472562.78002930,5370085.68000031,63.11000061,1.000000
472562.32995605,5370086.29000092,59.88000107,2.000000
472562.68005371,5370085.44000244,65.93000031,1.000000
472562.84997559,5370085.76999664,65.98000336,1.000000
472562.52001953,5370086.62000275,59.88999939,2.000000
472563.02001953,5370086.30999756,59.93999863,1.000000
472563.53002930,5370086.01999664,59.88999939,2.000000
472564.05004883,5370085.69999695,59.95000076,2.000000
472564.55004883,5370085.41000366,59.90000153,2.000000
472565.07995605,5370085.08000183,60.00999832,1.000000
472565.57995605,5370084.79000092,59.91999817,2.000000
472566.09997559,5370084.48000336,59.97000122,1.000000
472566.59997559,5370084.18000031,59.90999985,2.000000
472567.11999512,5370083.87000275,59.97000122,2.000000
472567.81005859,5370083.30999756,61.31999969,1.000000
472568.40002441,5370082.90000153,61.88999939,1.000000
472568.79003906,5370082.76000214,61.02999878,1.000000
472569.14001465,5370082.68000031,59.81000137,2.000000
472569.64001465,5370082.38999939,59.72999954,2.000000
472570.15002441,5370082.08000183,59.79999924,1.000000
472570.64001465,5370081.79000092,59.70999908,2.000000
472571.15002441,5370081.48999786,59.75000000,1.000000
472572.05004883,5370082.77999878,59.75999832,2.000000
472571.57995605,5370083.05000305,59.86999893,1.000000
472571.09997559,5370083.34999847,59.81999969,2.000000
472570.61999512,5370083.62999725,59.90999985,1.000000
472570.15002441,5370083.90000153,60.02999878,1.000000
472569.72998047,5370084.09999847,60.49000168,1.000000
472569.21997070,5370084.41999817,60.36000061,1.000000
472568.70996094,5370084.75000000,60.16999817,1.000000
472568.19995117,5370085.08000183,59.95000076,2.000000
472567.71997070,5370085.34999847,60.06000137,1.000000
472567.22998047,5370085.65000153,60.00999832,2.000000
472566.75000000,5370085.94000244,60.06000137,1.000000
472566.26000977,5370086.23000336,60.06999969,1.000000
472565.77001953,5370086.51999664,60.06999969,1.000000
472565.27001953,5370086.83000183,60.04999924,1.000000
472564.79003906,5370087.09999847,60.18000031,1.000000
472564.28002930,5370087.41999817,60.02000046,2.000000
472563.79003906,5370087.70999908,60.08000183,1.000000
472564.09997559,5370087.98999786,60.11000061,2.000000
472564.61999512,5370087.68000031,60.08000183,2.000000
472565.14001465,5370087.37000275,60.09999847,1.000000
472565.65002441,5370087.08000183,60.00000000,2.000000
472566.17004395,5370086.76000214,60.08000183,1.000000
472566.68994141,5370086.45999908,60.00000000,2.000000
472567.20996094,5370086.13999939,60.04999924,1.000000
472567.71997070,5370085.83999634,60.02000046,2.000000
472568.23999023,5370085.51999664,60.06999969,1.000000
472568.77001953,5370085.19999695,60.15000153,1.000000
472569.31005859,5370084.84999847,60.40999985,1.000000
472569.83996582,5370084.51000214,60.56999969,1.000000
472570.34997559,5370084.20999908,60.61999893,1.000000
472570.77001953,5370084.04000092,59.86000061,2.000000
472571.29003906,5370083.73000336,59.90000153,1.000000
472571.77001953,5370083.44999695,59.77000046,2.000000
472572.29003906,5370083.12999725,59.86000061,1.000000
472573.54003906,5370084.26000214,59.86999893,2.000000
472573.06005859,5370084.55000305,59.90000153,2.000000
472572.58996582,5370084.81999969,59.97999954,1.000000
472572.57995605,5370084.43000031,63.66999817,1.000000
472572.09997559,5370085.12000275,59.95000076,2.000000
472571.64001465,5370085.37999725,60.11000061,2.000000
472571.29003906,5370085.47000122,61.18999863,1.000000
472570.93994141,5370085.58000183,62.20000076,1.000000
472570.36999512,5370085.98999786,61.52000046,1.000000
472569.98999023,5370086.13999939,62.31000137,1.000000
472569.48999023,5370086.44999695,62.22000122,1.000000
472568.85998535,5370086.93000031,61.15000153,1.000000
472568.23999023,5370087.40000153,60.24000168,1.000000
472567.73999023,5370087.72000122,60.13000107,2.000000
472567.25000000,5370088.01999664,60.11999893,2.000000
472566.81005859,5370088.23000336,60.56999969,1.000000
472566.32995605,5370088.51999664,60.61000061,1.000000
472565.77001953,5370088.90000153,60.20000076,1.000000
472565.27001953,5370089.19999695,60.13999939,2.000000
472565.18994141,5370089.69999695,60.20999908,1.000000
472565.70996094,5370089.41000366,60.13000107,2.000000
472566.25000000,5370089.05999756,60.31000137,1.000000
472566.88000488,5370088.61000061,61.04999924,1.000000
472567.41003418,5370088.27999878,61.13999939,1.000000
472567.81005859,5370088.12999725,60.33000183,1.000000
472568.30004883,5370087.86000061,60.13999939,2.000000
472568.90002441,5370087.41999817,60.84000015,1.000000
472569.68005371,5370086.73999786,62.88000107,1.000000
472570.15002441,5370086.48999786,62.61000061,1.000000
472570.64001465,5370086.22000122,62.45999908,1.000000
472570.97998047,5370086.13999939,61.29999924,1.000000
472571.60998535,5370085.66000366,62.22000122,1.000000
472572.03002930,5370085.47000122,61.66999817,1.000000
472572.39001465,5370085.37999725,60.56000137,1.000000
472572.80004883,5370085.19999695,59.88999939,2.000000
472573.30004883,5370084.90000153,59.93000031,1.000000
472573.80004883,5370084.61000061,59.88000107,2.000000
472574.72998047,5370085.87000275,60.04000092,1.000000
472574.43005371,5370085.87999725,61.63000107,1.000000
472574.00000000,5370086.08000183,62.15999985,1.000000
472573.50000000,5370086.38999939,62.06999969,1.000000
472572.81994629,5370086.94999695,60.66999817,1.000000
472572.60998535,5370086.83999634,62.86999893,1.000000
472572.25000000,5370087.33999634,60.13000107,2.000000
472572.20996094,5370087.00000000,63.61000061,1.000000
472571.68994141,5370087.33000183,63.47000122,1.000000
472571.25000000,5370087.54000092,63.88000107,1.000000
472570.88000488,5370087.66999817,64.80999756,1.000000
472570.38000488,5370087.97000122,64.80999756,1.000000
472569.91003418,5370088.23000336,64.97000122,1.000000
472569.59997559,5370088.26999664,66.37000275,1.000000
472568.45996094,5370089.47000122,61.58000183,1.000000
472567.81005859,5370089.98000336,60.47999954,1.000000
472567.26000977,5370090.33999634,60.11999893,2.000000
472566.79003906,5370090.61000061,60.29999924,1.000000
472566.29003906,5370090.91999817,60.22000122,2.000000
472566.69995117,5370091.13999939,60.13999939,2.000000
472567.22998047,5370090.81999969,60.18999863,1.000000
472567.75000000,5370090.51000214,60.16999817,2.000000
472569.10998535,5370089.04000092,66.33999634,1.000000
472568.28002930,5370090.19000244,60.20000076,2.000000
472569.61999512,5370088.73999786,66.26000214,1.000000
472570.02001953,5370088.58999634,65.44000244,1.000000
472570.48999023,5370088.34999847,65.08999634,1.000000
472570.86999512,5370088.23000336,64.05000305,1.000000
472571.32995605,5370088.00000000,63.68999863,1.000000
472571.77001953,5370087.80000305,63.08000183,1.000000
472572.27001953,5370087.50000000,63.06000137,1.000000
472572.86999512,5370087.06999969,63.79999924,1.000000
472573.13000488,5370087.12000275,61.86999893,1.000000
472573.40002441,5370087.15000153,60.04999924,2.000000
472574.13000488,5370086.51999664,61.88999939,1.000000
472574.68994141,5370086.15000153,62.22000122,1.000000
472575.07995605,5370086.01000214,61.36000061,1.000000
472575.69995117,5370087.65000153,60.11999893,2.000000
472575.46997070,5370087.56999969,62.13999939,1.000000
472575.19995117,5370087.55000305,63.88999939,1.000000
472574.59997559,5370088.00000000,63.06999969,1.000000
472574.13000488,5370088.26999664,63.16999817,1.000000
472573.64001465,5370088.55000305,63.24000168,1.000000
472573.22998047,5370088.75000000,63.77999878,1.000000
472572.72998047,5370089.05000305,63.68999863,1.000000
472572.34997559,5370089.19999695,64.45999908,1.000000
472572.00000000,5370089.30000305,65.51000214,1.000000
472571.55004883,5370089.54000092,65.76000214,1.000000
472571.04003906,5370089.87000275,65.55999756,1.000000
472570.53002930,5370090.19999695,65.36000061,1.000000
472569.82995605,5370091.16999817,60.18000031,2.000000
472570.17004395,5370090.31999969,66.30000305,1.000000
472569.33996582,5370091.47000122,60.15000153,2.000000
472569.64001465,5370090.66999817,65.94999695,1.000000
472568.85998535,5370091.75000000,60.25000000,1.000000
472568.35998535,5370092.06999969,60.11000061,2.000000
472567.88000488,5370092.33000183,60.27000046,1.000000
472568.31005859,5370092.55999756,60.24000168,1.000000
472569.76000977,5370090.95999908,67.06999969,1.000000
472568.81005859,5370092.26999664,60.11999893,2.000000
472570.22998047,5370090.69999695,66.80000305,1.000000
472569.32995605,5370091.94999695,60.18000031,1.000000
472570.55004883,5370090.66999817,65.37999725,1.000000
472569.83996582,5370091.66000366,60.11999893,2.000000
472571.09997559,5370090.31999969,65.59999847,1.000000
472571.63000488,5370089.98000336,65.73999786,1.000000
472572.14001465,5370089.66999817,65.76999664,1.000000
472572.64001465,5370089.40000153,65.62000275,1.000000
472573.10998535,5370089.13999939,65.37000275,1.000000
472573.35998535,5370089.20999908,63.33000183,1.000000
472573.86999512,5370088.91999817,63.22999954,1.000000
472574.35998535,5370088.63999939,63.11999893,1.000000
472574.86999512,5370088.33999634,63.06000137,1.000000
472575.38000488,5370088.04000092,63.04000092,1.000000
472576.05004883,5370087.50000000,64.33999634,1.000000
472576.32995605,5370087.52999878,62.49000168,1.000000
472576.52001953,5370087.68000031,60.02000046,2.000000
472577.07995605,5370088.87000275,63.09999847,1.000000
472576.58996582,5370089.18000031,63.00999832,1.000000
472576.11999512,5370089.44999695,63.11999893,1.000000
472575.72998047,5370089.61000061,63.86000061,1.000000
472575.43994141,5370089.61000061,65.41999817,1.000000
472575.14001465,5370089.65000153,66.73999786,1.000000
472574.78002930,5370089.76999664,67.72000122,1.000000
472574.18005371,5370090.20999908,66.90000153,1.000000
472573.58996582,5370090.66000366,66.04000092,1.000000
472573.09997559,5370090.94000244,66.12000275,1.000000
472572.64001465,5370091.19999695,66.30999756,1.000000
472572.11999512,5370091.54000092,66.05999756,1.000000
472571.61999512,5370091.84999847,65.94999695,1.000000
472571.10998535,5370092.18000031,65.76999664,1.000000
472570.59997559,5370092.50000000,65.63999939,1.000000
472570.08996582,5370092.83000183,65.44000244,1.000000
472569.36999512,5370093.81999969,60.18999863,2.000000
472568.90002441,5370094.09999847,60.27000046,1.000000
472570.13000488,5370093.26000214,65.52999878,1.000000
472569.41003418,5370094.25000000,60.29000092,2.000000
472570.63000488,5370092.95999908,65.50000000,1.000000
472571.18994141,5370092.58999634,65.80999756,1.000000
472571.71997070,5370092.26999664,65.91999817,1.000000
472572.25000000,5370091.93000031,66.12000275,1.000000
472572.79003906,5370091.58999634,66.27999878,1.000000
472573.30004883,5370091.27999878,66.31999969,1.000000
472573.78002930,5370091.01000214,66.12999725,1.000000
472574.31005859,5370090.69000244,66.23000336,1.000000
472574.96997070,5370090.16000366,67.43000031,1.000000
472575.34997559,5370090.04000092,66.48999786,1.000000
472575.72998047,5370089.91000366,65.58000183,1.000000
472576.17004395,5370089.69999695,65.09999847,1.000000
472576.40002441,5370089.79000092,62.97999954,1.000000
472576.91003418,5370089.47000122,63.09000015,1.000000
472577.40002441,5370089.19000244,63.00000000,1.000000
472578.72998047,5370090.61000061,59.81000137,2.000000
472578.25000000,5370090.90000153,59.83000183,2.000000
472578.48999023,5370090.15000153,65.50000000,1.000000
472578.04003906,5370090.41000366,65.62999725,1.000000
472577.58996582,5370090.65000153,65.87000275,1.000000
472577.13000488,5370090.93000031,65.91999817,1.000000
472576.66003418,5370091.19000244,66.06999969,1.000000
472576.19995117,5370091.45999908,66.18000031,1.000000
472575.75000000,5370091.70999908,66.37000275,1.000000
472575.27001953,5370091.98999786,66.41000366,1.000000
472574.81005859,5370092.25000000,66.59999847,1.000000
472574.33996582,5370092.51999664,66.69999695,1.000000
472573.86999512,5370092.77999878,66.87999725,1.000000
472573.33996582,5370093.12999725,66.58999634,1.000000
472572.84997559,5370093.44000244,66.51999664,1.000000
472572.30004883,5370093.80000305,66.19999695,1.000000
472571.81005859,5370094.09999847,66.19000244,1.000000
472571.28002930,5370094.44000244,65.93000031,1.000000
472570.76000977,5370094.76999664,65.79000092,1.000000
472570.23999023,5370095.11000061,65.56999969,1.000000
472570.70996094,5370095.27999878,65.76000214,1.000000
472571.26000977,5370094.91000366,66.06999969,1.000000
472571.79003906,5370094.58999634,66.12000275,1.000000
472572.33996582,5370094.23999786,66.37999725,1.000000
472572.86999512,5370093.91000366,66.48000336,1.000000
472573.41003418,5370093.55999756,66.69000244,1.000000
472573.94995117,5370093.22000122,66.87000275,1.000000
472574.46997070,5370092.91999817,66.86000061,1.000000
472574.95996094,5370092.63999939,66.68000031,1.000000
472575.45996094,5370092.34999847,66.62000275,1.000000
472575.94995117,5370092.08000183,66.41000366,1.000000
472576.44995117,5370091.79000092,66.34999847,1.000000
472576.93005371,5370091.51000214,66.20999908,1.000000
472577.42004395,5370091.25000000,66.01000214,1.000000
472577.90002441,5370090.98000336,65.83000183,1.000000
472578.40002441,5370090.69000244,65.75000000,1.000000
472578.86999512,5370090.44000244,65.48999786,1.000000
472578.65002441,5370091.18000031,59.81999969,2.000000
472579.14001465,5370090.88999939,59.72000122,2.000000
472580.22998047,5370092.11000061,59.79000092,1.000000
472579.75000000,5370092.40000153,59.84000015,1.000000
472579.25000000,5370092.69999695,59.75999832,2.000000
472578.78002930,5370092.97000122,59.86999893,1.000000
472578.29003906,5370093.26999664,59.83000183,2.000000
472578.56005859,5370092.50000000,65.58000183,1.000000
472577.81994629,5370093.55000305,59.86000061,2.000000
472578.07995605,5370092.76999664,65.66000366,1.000000
472577.63000488,5370093.02999878,65.83000183,1.000000
472577.16003418,5370093.30000305,65.91999817,1.000000
472576.70996094,5370093.55000305,66.12999725,1.000000
472576.23999023,5370093.81999969,66.23000336,1.000000
472575.79003906,5370094.06999969,66.45999908,1.000000
472575.31005859,5370094.34999847,66.52999878,1.000000
472574.85998535,5370094.58999634,66.76999664,1.000000
472574.38000488,5370094.87000275,66.88999939,1.000000
472573.90002441,5370095.13999939,66.98999786,1.000000
472573.39001465,5370095.47000122,66.79000092,1.000000
472572.88000488,5370095.79000092,66.69000244,1.000000
472572.34997559,5370096.13999939,66.43000031,1.000000
472571.84997559,5370096.45999908,66.30999756,1.000000
472571.31994629,5370096.80000305,66.09999847,1.000000
472571.83996582,5370096.94000244,66.20999908,1.000000
472572.38000488,5370096.58999634,66.43000031,1.000000
472572.91003418,5370096.26000214,66.56999969,1.000000
472573.45996094,5370095.90000153,66.84999847,1.000000
472573.98999023,5370095.56999969,66.95999908,1.000000
472574.48999023,5370095.27999878,66.88999939,1.000000
472574.97998047,5370095.01000214,66.68000031,1.000000
472575.47998047,5370094.72000122,66.56999969,1.000000
472575.96997070,5370094.45999908,66.33000183,1.000000
472576.47998047,5370094.15000153,66.27999878,1.000000
472576.95996094,5370093.90000153,66.01000214,1.000000
472577.46997070,5370093.61000061,65.91000366,1.000000
472577.94995117,5370093.33999634,65.66999817,1.000000
472578.44995117,5370093.05999756,65.58999634,1.000000
472578.95996094,5370092.76000214,65.55000305,1.000000
472578.20996094,5370093.81999969,59.79000092,2.000000
472578.72998047,5370093.50000000,59.88999939,1.000000
472579.21997070,5370093.23000336,59.75000000,2.000000
472579.71997070,5370092.91999817,59.77999878,1.000000
472580.20996094,5370092.63999939,59.74000168,2.000000
472581.28002930,5370093.83999634,59.83000183,2.000000
472580.81994629,5370094.11000061,59.91999817,1.000000
472580.32995605,5370094.41000366,59.86000061,2.000000
472579.85998535,5370094.69000244,59.91999817,1.000000
472579.35998535,5370094.98000336,59.91999817,2.000000
472579.05004883,5370095.02999878,61.27000046,1.000000
472579.11999512,5370094.54000092,65.47000122,1.000000
472578.67004395,5370094.77999878,65.75000000,1.000000
472578.18994141,5370095.05999756,65.80000305,1.000000
472577.72998047,5370095.31999969,65.98000336,1.000000
472577.26000977,5370095.58999634,66.08000183,1.000000
472576.80004883,5370095.84999847,66.25000000,1.000000
472576.31994629,5370096.12999725,66.30999756,1.000000
472575.85998535,5370096.38999939,66.48999786,1.000000
472575.38000488,5370096.66999817,66.51000214,1.000000
472574.90002441,5370096.95999908,66.58000183,1.000000
472574.38000488,5370097.29000092,66.37000275,1.000000
472573.89001465,5370097.58999634,66.30999756,1.000000
472573.35998535,5370097.94000244,66.06999969,1.000000
472572.84997559,5370098.26000214,65.98000336,1.000000
472573.31994629,5370098.44999695,65.94000244,1.000000
472573.83996582,5370098.12999725,66.01000214,1.000000
472574.39001465,5370097.77999878,66.25000000,1.000000
472574.92004395,5370097.44999695,66.31999969,1.000000
472575.47998047,5370097.08000183,66.65000153,1.000000
472575.97998047,5370096.79000092,66.58999634,1.000000
472576.47998047,5370096.50000000,66.51000214,1.000000
472576.96997070,5370096.23000336,66.31999969,1.000000
472577.45996094,5370095.94000244,66.26000214,1.000000
472577.93994141,5370095.68000031,66.01000214,1.000000
472578.43005371,5370095.38999939,65.95999908,1.000000
472578.92004395,5370095.12000275,65.79000092,1.000000
472579.42004395,5370094.83000183,65.72000122,1.000000
472579.88000488,5370094.58000183,65.44999695,1.000000
472579.86999512,5370095.02999878,61.34999847,1.000000
472580.18994141,5370094.98999786,59.90999985,2.000000
472580.68994141,5370094.69999695,59.88999939,2.000000
472581.18994141,5370094.41000366,59.81999969,2.000000
472581.69995117,5370094.09999847,59.84000015,1.000000
472582.81005859,5370095.29000092,60.16999817,1.000000
472582.33996582,5370095.55999756,60.34999847,1.000000
472582.51000977,5370094.91000366,65.50000000,1.000000
472582.06994629,5370095.54000092,62.02000046,1.000000
472582.05004883,5370095.16999817,65.62999725,1.000000
472581.57995605,5370095.43000031,65.80999756,1.000000
472581.10998535,5370095.69999695,65.90000153,1.000000
472580.64001465,5370095.98000336,66.01999664,1.000000
472580.16003418,5370096.25000000,66.09999847,1.000000
472579.70996094,5370096.50000000,66.31999969,1.000000
472579.22998047,5370096.77999878,66.44000244,1.000000
472578.75000000,5370097.05000305,66.55999756,1.000000
472578.27001953,5370097.33999634,66.62000275,1.000000
472577.80004883,5370097.61000061,66.76999664,1.000000
472577.31994629,5370097.87999725,66.88999939,1.000000
